// image  001
137.80606,44.77592,0.6348877
137.80606,44.77592,-0.3651123
137.80606,44.77592,-1.3651123
137.80606,44.77592,-2.3651123
136.64804,44.399654,-2.6704025
136.64804,44.399654,-3.6704025
136.64804,44.399654,-4.6704025
136.64804,44.399654,-5.6704025
136.64804,44.399654,-6.6704025
136.64804,44.399654,-7.6704025
136.64804,44.399654,-8.670403
136.64804,44.399654,-9.670403
136.64804,44.399654,-10.670403
136.64804,44.399654,-11.670403
136.64804,44.399654,-12.670403
136.64804,44.399654,-13.670403
16.212477,5.267755,56.57936
16.212477,5.267755,55.57936
12.738376,4.1389503,56.66349
11.580341,3.7626824,56.3582
8.106238,2.6338775,57.442326
8.106238,2.6338775,56.442326
4.6321363,1.505073,57.526455
4.6321363,1.505073,56.526455
-0.0,-0.0,58.30529
-0.0,-0.0,57.30529
-3.4741025,-1.1288047,58.38942
-5.7901707,-1.8813412,58.778835
-6.948205,-2.2576094,58.473545
-6.948205,-2.2576094,57.473545
-10.422307,-3.386414,58.557674
-10.422307,-3.386414,57.557674
-13.89641,-4.5152187,58.6418
-18.528545,-6.020292,60.42064
-18.528545,-6.020292,59.42064
-17.370512,-5.644024,57.72593
-16.212477,-5.267755,56.03122
-15.054444,-4.891487,54.33651
-15.054444,-4.891487,53.33651
-15.054444,-4.891487,52.33651
-16.212477,-5.267755,52.03122
-16.212477,-5.267755,51.03122
-16.212477,-5.267755,50.03122
-16.212477,-5.267755,49.03122
-16.212477,-5.267755,48.03122
-17.370512,-5.644024,47.72593
-17.370512,-5.644024,46.72593
-17.370512,-5.644024,45.72593
-17.370512,-5.644024,44.72593
-17.370512,-5.644024,43.72593
-17.370512,-5.644024,42.72593
-17.370512,-5.644024,41.72593
-17.370512,-5.644024,40.72593
-17.370512,-5.644024,39.72593
-17.370512,-5.644024,38.72593
-17.370512,-5.644024,37.72593
-17.370512,-5.644024,36.72593
-17.370512,-5.644024,35.72593
-17.370512,-5.644024,34.72593
-17.370512,-5.644024,33.72593
-17.370512,-5.644024,32.72593
-17.370512,-5.644024,31.72593
-17.370512,-5.644024,30.72593
-17.370512,-5.644024,29.72593
-17.370512,-5.644024,28.72593
-17.370512,-5.644024,27.72593
-17.370512,-5.644024,26.72593
-17.370512,-5.644024,25.72593
-16.212477,-5.267755,24.03122
-16.212477,-5.267755,23.03122
-16.212477,-5.267755,22.03122
-16.212477,-5.267755,21.03122
-16.212477,-5.267755,20.03122
-16.212477,-5.267755,19.03122
-16.212477,-5.267755,18.03122
-16.212477,-5.267755,17.03122
-16.212477,-5.267755,16.03122
-16.212477,-5.267755,15.03122
-16.212477,-5.267755,14.03122
-16.212477,-5.267755,13.03122
-16.212477,-5.267755,12.03122
-17.370512,-5.644024,11.725929
-17.370512,-5.644024,10.725929
-17.370512,-5.644024,9.725929
-17.370512,-5.644024,8.725929
-18.528545,-6.020292,8.420639
-17.370512,-5.644024,6.7259293
-18.528545,-6.020292,6.420639
-17.370512,-5.644024,4.7259293
-17.370512,-5.644024,3.7259293
-18.528545,-6.020292,3.420639
-18.528545,-6.020292,2.420639
-18.528545,-6.020292,1.420639
-18.528545,-6.020292,0.42063904
-18.528545,-6.020292,-0.57936096
-20.844614,-6.772828,-0.18994236
-22.00265,-7.1490965,-0.49523354
-24.318718,-7.901633,-0.105814934
-26.634787,-8.65417,0.28360367
-27.79282,-9.030437,-0.021687508
-28.950853,-9.406706,-0.32697868
-30.108889,-9.782974,-0.6322689
-33.582993,-10.911779,0.45185852
-34.741024,-11.288048,0.1465683
-37.05709,-12.040584,0.53598785
-37.05709,-12.040584,-0.46401215
-39.373158,-12.793119,-0.0745945
-40.531197,-13.169389,-0.37988472
-42.847263,-13.921925,0.0095329285
-45.16333,-14.67446,0.39895248
-46.321365,-15.05073,0.093660355
-47.4794,-15.426998,-0.21162987
-50.953503,-16.555801,0.87249756
-50.953503,-16.555801,-0.12750244
-53.269573,-17.30834,0.2619171
-54.427605,-17.684607,-0.043375015
-56.74367,-18.437143,0.34604263
-57.901707,-18.813412,0.04075241
-60.217777,-19.565948,0.43017197
-61.37581,-19.942217,0.124881744
-64.84991,-21.07102,1.2090073
-64.84991,-21.07102,0.20900726
-66.00794,-21.447289,-0.09628296
-67.165985,-21.823559,-0.40157318
-69.48205,-22.576096,-0.0121536255
-70.64008,-22.952362,-0.31744385
-72.956154,-23.704899,0.07197571
-74.11418,-24.081167,-0.23331833
-75.27222,-24.457436,-0.53860855
-77.58829,-25.20997,-0.149189
-79.90436,-25.96251,0.24023056
-81.06239,-26.338778,-0.06505966
-83.378456,-27.091312,0.32435608
-83.378456,-27.091312,-0.6756439
-85.69453,-27.84385,-0.28622437
-88.0106,-28.596386,0.10319519
-89.168625,-28.972654,-0.20209503
-91.4847,-29.725191,0.18732071
-93.800766,-30.477728,0.57674026
-93.800766,-30.477728,-0.42325974
-96.11684,-31.230265,-0.03384018
-97.27487,-31.606531,-0.3391304
-99.590935,-32.359066,0.05028534
-101.907005,-33.111603,0.4397049
-103.06503,-33.487873,0.13441467
-103.06503,-33.487873,-0.8655853
-106.53915,-34.61668,0.218544
-108.85521,-35.369213,0.60796356
-111.17128,-36.12175,0.9973755
-111.17128,-36.12175,-0.0026245117
-112.32931,-36.49802,-0.30791473
-114.64538,-37.250553,0.08150482
-116.96145,-38.003094,0.47092438
-118.119484,-38.37936,0.16563416
-120.435555,-39.131897,0.5550537
-121.59358,-39.508163,0.24976349
-123.90966,-40.260704,0.63918304
-125.06769,-40.63697,0.33389282
-126.22572,-41.01324,0.0286026
-127.38375,-41.389503,-0.27668762
-129.69981,-42.14204,-1.8872757
-129.69981,-42.14204,-2.8872757
-129.69981,-42.14204,-3.8872757
// image  086
141.13675,37.817467,283.9402
141.13675,37.817467,282.9402
141.13675,37.817467,281.9402
141.13675,37.817467,280.9402
141.13675,37.817467,279.9402
141.13675,37.817467,278.9402
141.13675,37.817467,277.9402
141.13675,37.817467,276.9402
141.13675,37.817467,275.9402
141.13675,37.817467,274.9402
141.13675,37.817467,273.9402
141.13675,37.817467,272.9402
141.13675,37.817467,271.9402
141.13675,37.817467,270.9402
141.13675,37.817467,269.9402
141.13675,37.817467,268.9402
141.13675,37.817467,267.9402
141.13675,37.817467,266.9402
141.13675,37.817467,265.9402
141.13675,37.817467,264.9402
141.13675,37.817467,263.9402
141.13675,37.817467,262.9402
141.13675,37.817467,261.9402
141.13675,37.817467,260.9402
142.31288,38.13261,259.24548
142.31288,38.13261,258.24548
142.31288,38.13261,257.24548
142.31288,38.13261,256.24548
142.31288,38.13261,255.24547
142.31288,38.13261,254.24547
142.31288,38.13261,253.24547
142.31288,38.13261,252.24547
142.31288,38.13261,251.24547
142.31288,38.13261,250.24547
141.13675,37.817467,249.94019
141.13675,37.817467,248.94019
142.31288,38.13261,247.24547
142.31288,38.13261,246.24547
142.31288,38.13261,245.24547
142.31288,38.13261,244.24547
142.31288,38.13261,243.24547
142.31288,38.13261,242.24547
142.31288,38.13261,241.24547
142.31288,38.13261,240.24547
142.31288,38.13261,239.24547
142.31288,38.13261,238.24547
142.31288,38.13261,237.24547
142.31288,38.13261,236.24547
142.31288,38.13261,235.24547
142.31288,38.13261,234.24547
142.31288,38.13261,233.24547
142.31288,38.13261,232.24547
142.31288,38.13261,231.24547
142.31288,38.13261,230.24547
142.31288,38.13261,229.24547
142.31288,38.13261,228.24547
142.31288,38.13261,227.24547
142.31288,38.13261,226.24547
142.31288,38.13261,225.24547
142.31288,38.13261,224.24547
142.31288,38.13261,223.24547
142.31288,38.13261,222.24547
142.31288,38.13261,221.24547
142.31288,38.13261,220.24547
142.31288,38.13261,219.24547
142.31288,38.13261,218.24547
142.31288,38.13261,217.24547
142.31288,38.13261,216.24547
142.31288,38.13261,215.24547
142.31288,38.13261,214.24547
142.31288,38.13261,213.24547
142.31288,38.13261,212.24547
142.31288,38.13261,211.24547
142.31288,38.13261,210.24547
142.31288,38.13261,209.24547
142.31288,38.13261,208.24547
142.31288,38.13261,207.24547
142.31288,38.13261,206.24547
142.31288,38.13261,205.24547
142.31288,38.13261,204.24547
142.31288,38.13261,203.24547
142.31288,38.13261,202.24547
142.31288,38.13261,201.24547
142.31288,38.13261,200.24547
142.31288,38.13261,199.24547
142.31288,38.13261,198.24547
142.31288,38.13261,197.24547
142.31288,38.13261,196.24547
142.31288,38.13261,195.24547
143.48903,38.447758,193.55075
143.48903,38.447758,192.55075
143.48903,38.447758,191.55075
143.48903,38.447758,190.55075
143.48903,38.447758,189.55075
143.48903,38.447758,188.55075
142.31288,38.13261,188.24547
142.31288,38.13261,187.24547
142.31288,38.13261,186.24547
142.31288,38.13261,185.24547
141.13675,37.817467,184.94019
141.13675,37.817467,183.94019
141.13675,37.817467,182.94019
141.13675,37.817467,181.94019
142.31288,38.13261,180.24547
141.13675,37.817467,179.94019
141.13675,37.817467,178.94019
142.31288,38.13261,177.24547
142.31288,38.13261,176.24547
142.31288,38.13261,175.24547
142.31288,38.13261,174.24547
142.31288,38.13261,173.24547
142.31288,38.13261,172.24547
142.31288,38.13261,171.24547
142.31288,38.13261,170.24547
142.31288,38.13261,169.24547
142.31288,38.13261,168.24547
142.31288,38.13261,167.24547
143.48903,38.447758,165.55075
143.48903,38.447758,164.55075
143.48903,38.447758,163.55075
142.31288,38.13261,163.24547
142.31288,38.13261,162.24547
142.31288,38.13261,161.24547
142.31288,38.13261,160.24547
142.31288,38.13261,159.24547
142.31288,38.13261,158.24547
142.31288,38.13261,157.24547
142.31288,38.13261,156.24547
142.31288,38.13261,155.24547
142.31288,38.13261,154.24547
142.31288,38.13261,153.24547
142.31288,38.13261,152.24547
142.31288,38.13261,151.24547
142.31288,38.13261,150.24547
142.31288,38.13261,149.24547
142.31288,38.13261,148.24547
142.31288,38.13261,147.24547
142.31288,38.13261,146.24547
142.31288,38.13261,145.24547
142.31288,38.13261,144.24547
142.31288,38.13261,143.24547
142.31288,38.13261,142.24547
142.31288,38.13261,141.24547
142.31288,38.13261,140.24547
142.31288,38.13261,139.24547
142.31288,38.13261,138.24547
142.31288,38.13261,137.24547
142.31288,38.13261,136.24547
142.31288,38.13261,135.24547
142.31288,38.13261,134.24547
142.31288,38.13261,133.24547
142.31288,38.13261,132.24547
142.31288,38.13261,131.24547
142.31288,38.13261,130.24547
142.31288,38.13261,129.24547
142.31288,38.13261,128.24547
142.31288,38.13261,127.24547
142.31288,38.13261,126.24547
142.31288,38.13261,125.24547
142.31288,38.13261,124.24547
142.31288,38.13261,123.24547
142.31288,38.13261,122.24547
142.31288,38.13261,121.24547
142.31288,38.13261,120.24547
142.31288,38.13261,119.24547
142.31288,38.13261,118.24547
142.31288,38.13261,117.24547
142.31288,38.13261,116.24547
142.31288,38.13261,115.24547
142.31288,38.13261,114.24547
142.31288,38.13261,113.24547
142.31288,38.13261,112.24547
142.31288,38.13261,111.24547
142.31288,38.13261,110.24547
142.31288,38.13261,109.24547
142.31288,38.13261,108.24547
142.31288,38.13261,107.24547
142.31288,38.13261,106.24547
142.31288,38.13261,105.24547
142.31288,38.13261,104.24547
142.31288,38.13261,103.24547
142.31288,38.13261,102.24547
142.31288,38.13261,101.24547
142.31288,38.13261,100.24547
142.31288,38.13261,99.24547
142.31288,38.13261,98.24547
142.31288,38.13261,97.24547
142.31288,38.13261,96.24547
143.48903,38.447758,94.55076
143.48903,38.447758,93.55076
143.48903,38.447758,92.55076
143.48903,38.447758,91.55076
142.31288,38.13261,91.24547
143.48903,38.447758,89.55076
143.48903,38.447758,88.55076
143.48903,38.447758,87.55076
144.66516,38.7629,85.85605
144.66516,38.7629,84.85605
144.66516,38.7629,83.85605
142.31288,38.13261,84.24547
142.31288,38.13261,83.24547
141.13675,37.817467,82.94018
141.13675,37.817467,81.94018
141.13675,37.817467,80.94018
141.13675,37.817467,79.94018
141.13675,37.817467,78.94018
141.13675,37.817467,77.94018
141.13675,37.817467,76.94018
141.13675,37.817467,75.94018
141.13675,37.817467,74.94018
141.13675,37.817467,73.94018
141.13675,37.817467,72.94018
141.13675,37.817467,71.94018
141.13675,37.817467,70.94018
141.13675,37.817467,69.94018
142.31288,38.13261,68.24547
142.31288,38.13261,67.24547
142.31288,38.13261,66.24547
142.31288,38.13261,65.24547
142.31288,38.13261,64.24547
142.31288,38.13261,63.24547
142.31288,38.13261,62.24547
141.13675,37.817467,61.940178
141.13675,37.817467,60.940178
141.13675,37.817467,59.940178
141.13675,37.817467,58.940178
141.13675,37.817467,57.940178
142.31288,38.13261,56.24547
142.31288,38.13261,55.24547
142.31288,38.13261,54.24547
142.31288,38.13261,53.24547
142.31288,38.13261,52.24547
142.31288,38.13261,51.24547
142.31288,38.13261,50.24547
141.13675,37.817467,49.940178
141.13675,37.817467,48.940178
142.31288,38.13261,47.24547
142.31288,38.13261,46.24547
142.31288,38.13261,45.24547
142.31288,38.13261,44.24547
141.13675,37.817467,43.940178
141.13675,37.817467,42.940178
141.13675,37.817467,41.940178
142.31288,38.13261,40.24547
142.31288,38.13261,39.24547
141.13675,37.817467,38.940178
141.13675,37.817467,37.940178
139.9606,37.50232,37.634888
139.9606,37.50232,36.634888
139.9606,37.50232,35.634888
139.9606,37.50232,34.634888
139.9606,37.50232,33.634888
139.9606,37.50232,32.634888
139.9606,37.50232,31.634888
139.9606,37.50232,30.634888
139.9606,37.50232,29.634888
139.9606,37.50232,28.634888
139.9606,37.50232,27.634888
139.9606,37.50232,26.634888
139.9606,37.50232,25.634888
141.13675,37.817467,23.940178
141.13675,37.817467,22.940178
141.13675,37.817467,21.940178
141.13675,37.817467,20.940178
141.13675,37.817467,19.940178
141.13675,37.817467,18.940178
139.9606,37.50232,18.634888
139.9606,37.50232,17.634888
139.9606,37.50232,16.634888
139.9606,37.50232,15.634888
139.9606,37.50232,14.634888
139.9606,37.50232,13.634888
139.9606,37.50232,12.634888
139.9606,37.50232,11.634888
139.9606,37.50232,10.634888
138.78447,37.187176,10.329597
139.9606,37.50232,8.634888
139.9606,37.50232,7.6348877
139.9606,37.50232,6.6348877
139.9606,37.50232,5.6348877
139.9606,37.50232,4.6348877
139.9606,37.50232,3.6348877
139.9606,37.50232,2.6348877
139.9606,37.50232,1.6348877
139.9606,37.50232,0.6348877
139.9606,37.50232,-0.3651123
139.9606,37.50232,-1.3651123
139.9606,37.50232,-2.3651123
139.9606,37.50232,-3.3651123
139.9606,37.50232,-4.3651123
139.9606,37.50232,-5.3651123
138.78447,37.187176,-5.6704025
138.78447,37.187176,-6.6704025
138.78447,37.187176,-7.6704025
138.78447,37.187176,-8.670403
138.78447,37.187176,-9.670403
138.78447,37.187176,-10.670403
138.78447,37.187176,-11.670403
138.78447,37.187176,-12.670403
138.78447,37.187176,-13.670403
17.642094,4.7271833,55.88465
16.465954,4.4120374,55.57936
12.937534,3.466601,56.66349
11.761395,3.1514556,56.3582
8.232977,2.2060187,57.442326
8.232977,2.2060187,56.442326
4.7045584,1.2605822,57.526455
4.7045584,1.2605822,56.526455
-0.0,-0.0,58.30529
-0.0,-0.0,57.30529
-3.5284185,-0.94543666,58.38942
-5.8806977,-1.5757278,58.778835
-7.056837,-1.8908733,58.473545
-7.056837,-1.8908733,57.473545
-10.585257,-2.83631,58.557674
-10.585257,-2.83631,57.557674
-15.289814,-4.0968924,59.33651
-16.465954,-4.4120374,59.03122
-18.818233,-5.042329,59.42064
-17.642094,-4.7271833,57.72593
-16.465954,-4.4120374,56.03122
-15.289814,-4.0968924,54.33651
-15.289814,-4.0968924,53.33651
-15.289814,-4.0968924,52.33651
-15.289814,-4.0968924,51.33651
-16.465954,-4.4120374,51.03122
-16.465954,-4.4120374,50.03122
-16.465954,-4.4120374,49.03122
-16.465954,-4.4120374,48.03122
-17.642094,-4.7271833,47.72593
-17.642094,-4.7271833,46.72593
-17.642094,-4.7271833,45.72593
-17.642094,-4.7271833,44.72593
-17.642094,-4.7271833,43.72593
-17.642094,-4.7271833,42.72593
-16.465954,-4.4120374,41.03122
-16.465954,-4.4120374,40.03122
-17.642094,-4.7271833,39.72593
-17.642094,-4.7271833,38.72593
-17.642094,-4.7271833,37.72593
-17.642094,-4.7271833,36.72593
-17.642094,-4.7271833,35.72593
-17.642094,-4.7271833,34.72593
-17.642094,-4.7271833,33.72593
-17.642094,-4.7271833,32.72593
-17.642094,-4.7271833,31.72593
-17.642094,-4.7271833,30.72593
-17.642094,-4.7271833,29.72593
-17.642094,-4.7271833,28.72593
-17.642094,-4.7271833,27.72593
-17.642094,-4.7271833,26.72593
-17.642094,-4.7271833,25.72593
-16.465954,-4.4120374,24.03122
-16.465954,-4.4120374,23.03122
-16.465954,-4.4120374,22.03122
-16.465954,-4.4120374,21.03122
-17.642094,-4.7271833,20.72593
-18.818233,-5.042329,20.420639
-18.818233,-5.042329,19.420639
-18.818233,-5.042329,18.420639
-18.818233,-5.042329,17.420639
-18.818233,-5.042329,16.420639
-18.818233,-5.042329,15.420639
-18.818233,-5.042329,14.420639
-17.642094,-4.7271833,12.725929
-18.818233,-5.042329,12.420639
-18.818233,-5.042329,11.420639
-18.818233,-5.042329,10.420639
-17.642094,-4.7271833,8.725929
-17.642094,-4.7271833,7.7259293
-18.818233,-5.042329,7.420639
-18.818233,-5.042329,6.420639
-18.818233,-5.042329,5.420639
-17.642094,-4.7271833,3.7259293
-17.642094,-4.7271833,2.7259293
-19.994371,-5.3574743,3.1153479
-18.818233,-5.042329,1.420639
-18.818233,-5.042329,0.42063904
-18.818233,-5.042329,-0.57936096
-19.994371,-5.3574743,-0.88465214
-22.346651,-5.9877653,-0.49523354
-24.69893,-6.618057,-0.105814934
-25.875069,-6.933202,-0.4111061
-28.227348,-7.5634933,-0.021687508
-29.403488,-7.8786387,-0.32697868
-30.579628,-8.193785,-0.6322689
-34.108047,-9.139221,0.45185852
-35.284187,-9.454367,0.1465683
-37.636467,-10.084658,0.53598785
-37.636467,-10.084658,-0.46401215
-41.164886,-11.030095,0.6201153
-42.341026,-11.34524,0.31482315
-43.517162,-11.660385,0.0095329285
-45.869442,-12.290676,0.39895248
-47.04558,-12.605823,0.093660355
-48.22172,-12.920968,-0.21162987
-50.574,-13.551259,0.17778778
-51.750137,-13.866404,-0.12750244
-54.10242,-14.4966955,0.2619171
-55.27856,-14.811841,-0.043375015
-57.630836,-15.442132,0.34604263
-58.806976,-15.7572775,0.04075241
-61.159256,-16.38757,0.43017197
-62.335396,-16.702715,0.124881744
-64.687675,-17.333006,0.5143013
-65.863815,-17.64815,0.20900726
-67.039955,-17.963295,-0.09628296
-69.392235,-18.593588,0.2931366
-70.568375,-18.908733,-0.0121536255
-71.744514,-19.223879,-0.31744385
-74.096794,-19.85417,0.07197571
-75.272934,-20.169315,-0.23331833
-76.449066,-20.48446,-0.53860855
-78.801346,-21.114752,-0.149189
-81.15363,-21.745045,0.24023056
-82.32977,-22.06019,-0.06505966
-83.50591,-22.375336,-0.3703537
-87.034325,-23.32077,0.71377563
-87.034325,-23.32077,-0.28622437
-89.386604,-23.951061,0.10319519
-90.562744,-24.266207,-0.20209503
-92.91503,-24.8965,0.18732071
-95.2673,-25.52679,0.57674026
-95.2673,-25.52679,-0.42325974
-97.61958,-26.157082,-0.03384018
-98.79572,-26.472227,-0.3391304
-102.32414,-27.417664,0.7449951
-103.500275,-27.732807,0.4397049
-104.676414,-28.047953,0.13441467
-104.676414,-28.047953,-0.8655853
-108.20484,-28.993391,0.218544
-110.55712,-29.623682,0.60796356
-112.90939,-30.253973,0.9973755
-112.90939,-30.253973,-0.0026245117
-115.26167,-30.884264,0.38679504
-116.43781,-31.19941,0.08150482
-118.7901,-31.829702,0.47092438
-119.96624,-32.144848,0.16563416
-123.49465,-33.090282,1.2497635
-123.49465,-33.090282,0.24976349
-125.84694,-33.720577,0.63918304
-127.02307,-34.03572,0.33389282
-128.19922,-34.35087,0.0286026
-131.72763,-35.2963,1.1127243
-131.72763,-35.2963,0.112724304
-131.72763,-35.2963,-0.8872757
-131.72763,-35.2963,-1.8872757
-131.72763,-35.2963,-2.8872757
-131.72763,-35.2963,-3.8872757
-131.72763,-35.2963,-4.8872757
-131.72763,-35.2963,-5.8872757
// image  087
142.92253,30.379087,283.9402
142.92253,30.379087,282.9402
142.92253,30.379087,281.9402
142.92253,30.379087,280.9402
142.92253,30.379087,279.9402
142.92253,30.379087,278.9402
142.92253,30.379087,277.9402
142.92253,30.379087,276.9402
142.92253,30.379087,275.9402
142.92253,30.379087,274.9402
142.92253,30.379087,273.9402
142.92253,30.379087,272.9402
142.92253,30.379087,271.9402
142.92253,30.379087,270.9402
142.92253,30.379087,269.9402
142.92253,30.379087,268.9402
142.92253,30.379087,267.9402
142.92253,30.379087,266.9402
142.92253,30.379087,265.9402
142.92253,30.379087,264.9402
142.92253,30.379087,263.9402
142.92253,30.379087,262.9402
142.92253,30.379087,261.9402
142.92253,30.379087,260.9402
144.11356,30.632244,259.24548
144.11356,30.632244,258.24548
144.11356,30.632244,257.24548
144.11356,30.632244,256.24548
144.11356,30.632244,255.24547
144.11356,30.632244,254.24547
144.11356,30.632244,253.24547
144.11356,30.632244,252.24547
144.11356,30.632244,251.24547
144.11356,30.632244,250.24547
142.92253,30.379087,249.94019
142.92253,30.379087,248.94019
142.92253,30.379087,247.94019
142.92253,30.379087,246.94019
144.11356,30.632244,245.24547
144.11356,30.632244,244.24547
144.11356,30.632244,243.24547
144.11356,30.632244,242.24547
144.11356,30.632244,241.24547
144.11356,30.632244,240.24547
142.92253,30.379087,239.94019
142.92253,30.379087,238.94019
142.92253,30.379087,237.94019
144.11356,30.632244,236.24547
144.11356,30.632244,235.24547
144.11356,30.632244,234.24547
144.11356,30.632244,233.24547
144.11356,30.632244,232.24547
144.11356,30.632244,231.24547
144.11356,30.632244,230.24547
144.11356,30.632244,229.24547
144.11356,30.632244,228.24547
144.11356,30.632244,227.24547
144.11356,30.632244,226.24547
144.11356,30.632244,225.24547
144.11356,30.632244,224.24547
144.11356,30.632244,223.24547
144.11356,30.632244,222.24547
144.11356,30.632244,221.24547
144.11356,30.632244,220.24547
144.11356,30.632244,219.24547
144.11356,30.632244,218.24547
144.11356,30.632244,217.24547
144.11356,30.632244,216.24547
144.11356,30.632244,215.24547
144.11356,30.632244,214.24547
144.11356,30.632244,213.24547
144.11356,30.632244,212.24547
144.11356,30.632244,211.24547
144.11356,30.632244,210.24547
144.11356,30.632244,209.24547
144.11356,30.632244,208.24547
144.11356,30.632244,207.24547
144.11356,30.632244,206.24547
144.11356,30.632244,205.24547
144.11356,30.632244,204.24547
144.11356,30.632244,203.24547
144.11356,30.632244,202.24547
144.11356,30.632244,201.24547
144.11356,30.632244,200.24547
144.11356,30.632244,199.24547
144.11356,30.632244,198.24547
144.11356,30.632244,197.24547
144.11356,30.632244,196.24547
144.11356,30.632244,195.24547
145.30458,30.885405,193.55075
145.30458,30.885405,192.55075
145.30458,30.885405,191.55075
145.30458,30.885405,190.55075
145.30458,30.885405,189.55075
145.30458,30.885405,188.55075
145.30458,30.885405,187.55075
144.11356,30.632244,187.24547
144.11356,30.632244,186.24547
144.11356,30.632244,185.24547
142.92253,30.379087,184.94019
142.92253,30.379087,183.94019
142.92253,30.379087,182.94019
142.92253,30.379087,181.94019
144.11356,30.632244,180.24547
142.92253,30.379087,179.94019
144.11356,30.632244,178.24547
144.11356,30.632244,177.24547
144.11356,30.632244,176.24547
144.11356,30.632244,175.24547
144.11356,30.632244,174.24547
144.11356,30.632244,173.24547
144.11356,30.632244,172.24547
144.11356,30.632244,171.24547
144.11356,30.632244,170.24547
144.11356,30.632244,169.24547
144.11356,30.632244,168.24547
144.11356,30.632244,167.24547
145.30458,30.885405,165.55075
145.30458,30.885405,164.55075
145.30458,30.885405,163.55075
144.11356,30.632244,163.24547
144.11356,30.632244,162.24547
144.11356,30.632244,161.24547
144.11356,30.632244,160.24547
144.11356,30.632244,159.24547
144.11356,30.632244,158.24547
144.11356,30.632244,157.24547
144.11356,30.632244,156.24547
144.11356,30.632244,155.24547
144.11356,30.632244,154.24547
144.11356,30.632244,153.24547
144.11356,30.632244,152.24547
144.11356,30.632244,151.24547
144.11356,30.632244,150.24547
144.11356,30.632244,149.24547
144.11356,30.632244,148.24547
144.11356,30.632244,147.24547
144.11356,30.632244,146.24547
144.11356,30.632244,145.24547
144.11356,30.632244,144.24547
144.11356,30.632244,143.24547
144.11356,30.632244,142.24547
144.11356,30.632244,141.24547
144.11356,30.632244,140.24547
144.11356,30.632244,139.24547
144.11356,30.632244,138.24547
144.11356,30.632244,137.24547
144.11356,30.632244,136.24547
144.11356,30.632244,135.24547
144.11356,30.632244,134.24547
144.11356,30.632244,133.24547
144.11356,30.632244,132.24547
144.11356,30.632244,131.24547
144.11356,30.632244,130.24547
144.11356,30.632244,129.24547
144.11356,30.632244,128.24547
144.11356,30.632244,127.24547
144.11356,30.632244,126.24547
144.11356,30.632244,125.24547
144.11356,30.632244,124.24547
144.11356,30.632244,123.24547
144.11356,30.632244,122.24547
144.11356,30.632244,121.24547
144.11356,30.632244,120.24547
144.11356,30.632244,119.24547
144.11356,30.632244,118.24547
144.11356,30.632244,117.24547
144.11356,30.632244,116.24547
144.11356,30.632244,115.24547
144.11356,30.632244,114.24547
144.11356,30.632244,113.24547
144.11356,30.632244,112.24547
144.11356,30.632244,111.24547
144.11356,30.632244,110.24547
144.11356,30.632244,109.24547
144.11356,30.632244,108.24547
144.11356,30.632244,107.24547
144.11356,30.632244,106.24547
144.11356,30.632244,105.24547
144.11356,30.632244,104.24547
144.11356,30.632244,103.24547
144.11356,30.632244,102.24547
144.11356,30.632244,101.24547
144.11356,30.632244,100.24547
144.11356,30.632244,99.24547
144.11356,30.632244,98.24547
144.11356,30.632244,97.24547
144.11356,30.632244,96.24547
144.11356,30.632244,95.24547
144.11356,30.632244,94.24547
145.30458,30.885405,92.55076
145.30458,30.885405,91.55076
144.11356,30.632244,91.24547
145.30458,30.885405,89.55076
145.30458,30.885405,88.55076
145.30458,30.885405,87.55076
145.30458,30.885405,86.55076
146.49559,31.138561,84.85605
145.30458,30.885405,84.55076
142.92253,30.379087,84.94018
144.11356,30.632244,83.24547
142.92253,30.379087,82.94018
142.92253,30.379087,81.94018
142.92253,30.379087,80.94018
144.11356,30.632244,79.24547
142.92253,30.379087,78.94018
142.92253,30.379087,77.94018
142.92253,30.379087,76.94018
142.92253,30.379087,75.94018
142.92253,30.379087,74.94018
142.92253,30.379087,73.94018
142.92253,30.379087,72.94018
142.92253,30.379087,71.94018
142.92253,30.379087,70.94018
142.92253,30.379087,69.94018
144.11356,30.632244,68.24547
144.11356,30.632244,67.24547
144.11356,30.632244,66.24547
144.11356,30.632244,65.24547
144.11356,30.632244,64.24547
144.11356,30.632244,63.24547
144.11356,30.632244,62.24547
144.11356,30.632244,61.24547
144.11356,30.632244,60.24547
142.92253,30.379087,59.940178
142.92253,30.379087,58.940178
142.92253,30.379087,57.940178
144.11356,30.632244,56.24547
144.11356,30.632244,55.24547
144.11356,30.632244,54.24547
144.11356,30.632244,53.24547
144.11356,30.632244,52.24547
144.11356,30.632244,51.24547
144.11356,30.632244,50.24547
142.92253,30.379087,49.940178
142.92253,30.379087,48.940178
144.11356,30.632244,47.24547
144.11356,30.632244,46.24547
144.11356,30.632244,45.24547
144.11356,30.632244,44.24547
142.92253,30.379087,43.940178
142.92253,30.379087,42.940178
142.92253,30.379087,41.940178
144.11356,30.632244,40.24547
144.11356,30.632244,39.24547
142.92253,30.379087,38.940178
142.92253,30.379087,37.940178
141.7315,30.125927,37.634888
141.7315,30.125927,36.634888
141.7315,30.125927,35.634888
141.7315,30.125927,34.634888
141.7315,30.125927,33.634888
141.7315,30.125927,32.634888
141.7315,30.125927,31.634888
141.7315,30.125927,30.634888
141.7315,30.125927,29.634888
141.7315,30.125927,28.634888
141.7315,30.125927,27.634888
141.7315,30.125927,26.634888
141.7315,30.125927,25.634888
142.92253,30.379087,23.940178
142.92253,30.379087,22.940178
142.92253,30.379087,21.940178
142.92253,30.379087,20.940178
141.7315,30.125927,20.634888
141.7315,30.125927,19.634888
141.7315,30.125927,18.634888
141.7315,30.125927,17.634888
141.7315,30.125927,16.634888
141.7315,30.125927,15.634888
141.7315,30.125927,14.634888
141.7315,30.125927,13.634888
141.7315,30.125927,12.634888
141.7315,30.125927,11.634888
140.5405,29.872768,11.329597
141.7315,30.125927,9.634888
141.7315,30.125927,8.634888
141.7315,30.125927,7.6348877
140.5405,29.872768,7.3295975
141.7315,30.125927,5.6348877
141.7315,30.125927,4.6348877
141.7315,30.125927,3.6348877
141.7315,30.125927,2.6348877
141.7315,30.125927,1.6348877
140.5405,29.872768,1.3295975
141.7315,30.125927,-0.3651123
141.7315,30.125927,-1.3651123
141.7315,30.125927,-2.3651123
141.7315,30.125927,-3.3651123
141.7315,30.125927,-4.3651123
141.7315,30.125927,-5.3651123
140.5405,29.872768,-5.6704025
140.5405,29.872768,-6.6704025
140.5405,29.872768,-7.6704025
140.5405,29.872768,-8.670403
140.5405,29.872768,-9.670403
141.7315,30.125927,-11.365112
141.7315,30.125927,-12.365112
141.7315,30.125927,-13.365112
140.5405,29.872768,-13.670403
16.674295,3.5442266,56.57936
13.101232,2.7847495,57.66349
13.101232,2.7847495,56.66349
11.910212,2.5315905,56.3582
8.337148,1.7721133,57.442326
8.337148,1.7721133,56.442326
4.7640843,1.0126362,57.526455
4.7640843,1.0126362,56.526455
-0.0,-0.0,58.30529
-0.0,-0.0,57.30529
-3.5730634,-0.75947714,58.38942
-4.7640843,-1.0126362,58.08413
-7.1461267,-1.5189543,58.473545
-7.1461267,-1.5189543,57.473545
-10.719191,-2.2784314,58.557674
-10.719191,-2.2784314,57.557674
-14.2922535,-3.0379086,58.6418
-15.483274,-3.2910676,58.33651
-19.056337,-4.0505447,59.42064
-19.056337,-4.0505447,58.42064
-17.865316,-3.797386,56.72593
-16.674295,-3.5442266,55.03122
-15.483274,-3.2910676,53.33651
-15.483274,-3.2910676,52.33651
-15.483274,-3.2910676,51.33651
-16.674295,-3.5442266,51.03122
-16.674295,-3.5442266,50.03122
-16.674295,-3.5442266,49.03122
-16.674295,-3.5442266,48.03122
-17.865316,-3.797386,47.72593
-17.865316,-3.797386,46.72593
-17.865316,-3.797386,45.72593
-17.865316,-3.797386,44.72593
-17.865316,-3.797386,43.72593
-17.865316,-3.797386,42.72593
-16.674295,-3.5442266,41.03122
-16.674295,-3.5442266,40.03122
-17.865316,-3.797386,39.72593
-17.865316,-3.797386,38.72593
-17.865316,-3.797386,37.72593
-17.865316,-3.797386,36.72593
-17.865316,-3.797386,35.72593
-17.865316,-3.797386,34.72593
-17.865316,-3.797386,33.72593
-17.865316,-3.797386,32.72593
-17.865316,-3.797386,31.72593
-17.865316,-3.797386,30.72593
-17.865316,-3.797386,29.72593
-17.865316,-3.797386,28.72593
-17.865316,-3.797386,27.72593
-17.865316,-3.797386,26.72593
-16.674295,-3.5442266,25.03122
-16.674295,-3.5442266,24.03122
-16.674295,-3.5442266,23.03122
-16.674295,-3.5442266,22.03122
-16.674295,-3.5442266,21.03122
-16.674295,-3.5442266,20.03122
-16.674295,-3.5442266,19.03122
-16.674295,-3.5442266,18.03122
-16.674295,-3.5442266,17.03122
-16.674295,-3.5442266,16.03122
-16.674295,-3.5442266,15.03122
-16.674295,-3.5442266,14.03122
-16.674295,-3.5442266,13.03122
-16.674295,-3.5442266,12.03122
-17.865316,-3.797386,11.725929
-17.865316,-3.797386,10.725929
-17.865316,-3.797386,9.725929
-17.865316,-3.797386,8.725929
-17.865316,-3.797386,7.7259293
-17.865316,-3.797386,6.7259293
-17.865316,-3.797386,5.7259293
-17.865316,-3.797386,4.7259293
-17.865316,-3.797386,3.7259293
-17.865316,-3.797386,2.7259293
-19.056337,-4.0505447,2.420639
-17.865316,-3.797386,0.72592926
-20.247358,-4.303704,1.1153479
-20.247358,-4.303704,0.11534786
-20.247358,-4.303704,-0.88465214
-22.6294,-4.810022,-0.49523354
-25.011444,-5.31634,-0.105814934
-28.584507,-6.075817,0.9783125
-28.584507,-6.075817,-0.021687508
-29.775526,-6.328976,-0.32697868
-32.15757,-6.8352942,0.062440872
-34.539616,-7.341613,0.45185852
-35.730633,-7.594772,0.1465683
-36.921654,-7.8479304,-0.15872192
-38.112675,-8.1010895,-0.46401215
-40.494717,-8.607408,-0.0745945
-42.876762,-9.113726,0.31482315
-44.06778,-9.366885,0.0095329285
-46.44982,-9.873202,0.39895248
-47.640846,-10.126362,0.093660355
-48.831867,-10.379521,-0.21162987
-51.21391,-10.8858385,0.17778778
-52.404926,-11.138998,-0.12750244
-54.786972,-11.645316,0.2619171
-55.977993,-11.898476,-0.043375015
-58.360035,-12.404793,0.34604263
-59.551052,-12.657952,0.04075241
-61.933098,-13.16427,0.43017197
-63.12412,-13.41743,0.124881744
-66.69718,-14.176907,1.2090073
-66.69718,-14.176907,0.20900726
-67.8882,-14.430065,-0.09628296
-70.27025,-14.936384,0.2931366
-71.461266,-15.189544,-0.0121536255
-72.65229,-15.442702,-0.31744385
-75.03433,-15.94902,0.07197571
-76.22535,-16.202179,-0.23331833
-77.416374,-16.455338,-0.53860855
-79.79841,-16.961657,-0.149189
-80.98943,-17.214815,-0.45447922
-83.37148,-17.721134,-0.06505966
-84.5625,-17.974293,-0.3703537
-85.753525,-18.227451,-0.6756439
-88.13556,-18.73377,-0.28622437
-90.5176,-19.240088,0.10319519
-91.708626,-19.493246,-0.20209503
-94.090675,-19.999565,0.18732071
-96.47271,-20.505884,0.57674026
-96.47271,-20.505884,-0.42325974
-98.85475,-21.012201,-0.03384018
-100.04578,-21.26536,-0.3391304
-102.42782,-21.771677,0.05028534
-104.80985,-22.277996,0.4397049
-106.00088,-22.531155,0.13441467
-106.00088,-22.531155,-0.8655853
-109.573944,-23.290632,0.218544
-111.955986,-23.796951,0.60796356
-114.33803,-24.303268,0.9973755
-114.33803,-24.303268,-0.0026245117
-116.72007,-24.809586,0.38679504
-119.102104,-25.315905,0.7762146
-120.29314,-25.569065,0.47092438
-122.67518,-26.075382,0.86034393
-125.05722,-26.5817,1.2497635
-125.05722,-26.5817,0.24976349
-127.43926,-27.08802,0.63918304
-128.63028,-27.341177,0.33389282
-129.8213,-27.594337,0.0286026
-132.20335,-28.100655,0.41801453
-133.39436,-28.353813,0.112724304
-133.39436,-28.353813,-0.8872757
-133.39436,-28.353813,-1.8872757
-133.39436,-28.353813,-2.8872757
-133.39436,-28.353813,-3.8872757
-133.39436,-28.353813,-4.8872757
// image  088
144.31657,22.85751,283.9402
144.31657,22.85751,282.9402
144.31657,22.85751,281.9402
144.31657,22.85751,280.9402
144.31657,22.85751,279.9402
144.31657,22.85751,278.9402
144.31657,22.85751,277.9402
144.31657,22.85751,276.9402
144.31657,22.85751,275.9402
144.31657,22.85751,274.9402
144.31657,22.85751,273.9402
144.31657,22.85751,272.9402
144.31657,22.85751,271.9402
144.31657,22.85751,270.9402
144.31657,22.85751,269.9402
144.31657,22.85751,268.9402
144.31657,22.85751,267.9402
144.31657,22.85751,266.9402
144.31657,22.85751,265.9402
144.31657,22.85751,264.9402
144.31657,22.85751,263.9402
144.31657,22.85751,262.9402
144.31657,22.85751,261.9402
144.31657,22.85751,260.9402
145.51921,23.047987,259.24548
145.51921,23.047987,258.24548
145.51921,23.047987,257.24548
145.51921,23.047987,256.24548
145.51921,23.047987,255.24547
145.51921,23.047987,254.24547
145.51921,23.047987,253.24547
145.51921,23.047987,252.24547
145.51921,23.047987,251.24547
145.51921,23.047987,250.24547
144.31657,22.85751,249.94019
144.31657,22.85751,248.94019
144.31657,22.85751,247.94019
144.31657,22.85751,246.94019
145.51921,23.047987,245.24547
145.51921,23.047987,244.24547
145.51921,23.047987,243.24547
145.51921,23.047987,242.24547
145.51921,23.047987,241.24547
145.51921,23.047987,240.24547
144.31657,22.85751,239.94019
145.51921,23.047987,238.24547
145.51921,23.047987,237.24547
144.31657,22.85751,236.94019
145.51921,23.047987,235.24547
145.51921,23.047987,234.24547
145.51921,23.047987,233.24547
145.51921,23.047987,232.24547
145.51921,23.047987,231.24547
145.51921,23.047987,230.24547
145.51921,23.047987,229.24547
145.51921,23.047987,228.24547
145.51921,23.047987,227.24547
145.51921,23.047987,226.24547
145.51921,23.047987,225.24547
145.51921,23.047987,224.24547
145.51921,23.047987,223.24547
145.51921,23.047987,222.24547
145.51921,23.047987,221.24547
145.51921,23.047987,220.24547
145.51921,23.047987,219.24547
145.51921,23.047987,218.24547
145.51921,23.047987,217.24547
145.51921,23.047987,216.24547
145.51921,23.047987,215.24547
145.51921,23.047987,214.24547
145.51921,23.047987,213.24547
145.51921,23.047987,212.24547
145.51921,23.047987,211.24547
145.51921,23.047987,210.24547
145.51921,23.047987,209.24547
145.51921,23.047987,208.24547
145.51921,23.047987,207.24547
145.51921,23.047987,206.24547
145.51921,23.047987,205.24547
145.51921,23.047987,204.24547
145.51921,23.047987,203.24547
145.51921,23.047987,202.24547
145.51921,23.047987,201.24547
145.51921,23.047987,200.24547
145.51921,23.047987,199.24547
145.51921,23.047987,198.24547
145.51921,23.047987,197.24547
145.51921,23.047987,196.24547
145.51921,23.047987,195.24547
146.72185,23.238468,193.55075
146.72185,23.238468,192.55075
146.72185,23.238468,191.55075
146.72185,23.238468,190.55075
146.72185,23.238468,189.55075
146.72185,23.238468,188.55075
145.51921,23.047987,188.24547
145.51921,23.047987,187.24547
145.51921,23.047987,186.24547
145.51921,23.047987,185.24547
144.31657,22.85751,184.94019
144.31657,22.85751,183.94019
144.31657,22.85751,182.94019
144.31657,22.85751,181.94019
145.51921,23.047987,180.24547
144.31657,22.85751,179.94019
145.51921,23.047987,178.24547
145.51921,23.047987,177.24547
145.51921,23.047987,176.24547
145.51921,23.047987,175.24547
145.51921,23.047987,174.24547
145.51921,23.047987,173.24547
145.51921,23.047987,172.24547
145.51921,23.047987,171.24547
145.51921,23.047987,170.24547
145.51921,23.047987,169.24547
145.51921,23.047987,168.24547
145.51921,23.047987,167.24547
146.72185,23.238468,165.55075
146.72185,23.238468,164.55075
145.51921,23.047987,164.24547
145.51921,23.047987,163.24547
145.51921,23.047987,162.24547
145.51921,23.047987,161.24547
145.51921,23.047987,160.24547
145.51921,23.047987,159.24547
145.51921,23.047987,158.24547
145.51921,23.047987,157.24547
145.51921,23.047987,156.24547
145.51921,23.047987,155.24547
145.51921,23.047987,154.24547
145.51921,23.047987,153.24547
145.51921,23.047987,152.24547
145.51921,23.047987,151.24547
145.51921,23.047987,150.24547
145.51921,23.047987,149.24547
145.51921,23.047987,148.24547
145.51921,23.047987,147.24547
145.51921,23.047987,146.24547
145.51921,23.047987,145.24547
145.51921,23.047987,144.24547
145.51921,23.047987,143.24547
145.51921,23.047987,142.24547
145.51921,23.047987,141.24547
145.51921,23.047987,140.24547
145.51921,23.047987,139.24547
145.51921,23.047987,138.24547
145.51921,23.047987,137.24547
145.51921,23.047987,136.24547
145.51921,23.047987,135.24547
145.51921,23.047987,134.24547
145.51921,23.047987,133.24547
145.51921,23.047987,132.24547
145.51921,23.047987,131.24547
145.51921,23.047987,130.24547
145.51921,23.047987,129.24547
145.51921,23.047987,128.24547
145.51921,23.047987,127.24547
145.51921,23.047987,126.24547
145.51921,23.047987,125.24547
145.51921,23.047987,124.24547
145.51921,23.047987,123.24547
145.51921,23.047987,122.24547
145.51921,23.047987,121.24547
145.51921,23.047987,120.24547
145.51921,23.047987,119.24547
145.51921,23.047987,118.24547
145.51921,23.047987,117.24547
145.51921,23.047987,116.24547
145.51921,23.047987,115.24547
145.51921,23.047987,114.24547
145.51921,23.047987,113.24547
145.51921,23.047987,112.24547
145.51921,23.047987,111.24547
145.51921,23.047987,110.24547
145.51921,23.047987,109.24547
145.51921,23.047987,108.24547
145.51921,23.047987,107.24547
145.51921,23.047987,106.24547
145.51921,23.047987,105.24547
145.51921,23.047987,104.24547
145.51921,23.047987,103.24547
145.51921,23.047987,102.24547
145.51921,23.047987,101.24547
145.51921,23.047987,100.24547
145.51921,23.047987,99.24547
145.51921,23.047987,98.24547
145.51921,23.047987,97.24547
145.51921,23.047987,96.24547
145.51921,23.047987,95.24547
145.51921,23.047987,94.24547
146.72185,23.238468,92.55076
146.72185,23.238468,91.55076
144.31657,22.85751,91.94018
146.72185,23.238468,89.55076
146.72185,23.238468,88.55076
146.72185,23.238468,87.55076
146.72185,23.238468,86.55076
147.92448,23.428946,84.85605
146.72185,23.238468,84.55076
144.31657,22.85751,84.94018
145.51921,23.047987,83.24547
144.31657,22.85751,82.94018
144.31657,22.85751,81.94018
144.31657,22.85751,80.94018
144.31657,22.85751,79.94018
144.31657,22.85751,78.94018
144.31657,22.85751,77.94018
144.31657,22.85751,76.94018
144.31657,22.85751,75.94018
144.31657,22.85751,74.94018
144.31657,22.85751,73.94018
144.31657,22.85751,72.94018
144.31657,22.85751,71.94018
144.31657,22.85751,70.94018
144.31657,22.85751,69.94018
145.51921,23.047987,68.24547
145.51921,23.047987,67.24547
145.51921,23.047987,66.24547
145.51921,23.047987,65.24547
145.51921,23.047987,64.24547
145.51921,23.047987,63.24547
145.51921,23.047987,62.24547
145.51921,23.047987,61.24547
145.51921,23.047987,60.24547
144.31657,22.85751,59.940178
144.31657,22.85751,58.940178
144.31657,22.85751,57.940178
145.51921,23.047987,56.24547
145.51921,23.047987,55.24547
145.51921,23.047987,54.24547
145.51921,23.047987,53.24547
145.51921,23.047987,52.24547
145.51921,23.047987,51.24547
145.51921,23.047987,50.24547
144.31657,22.85751,49.940178
144.31657,22.85751,48.940178
145.51921,23.047987,47.24547
145.51921,23.047987,46.24547
145.51921,23.047987,45.24547
145.51921,23.047987,44.24547
144.31657,22.85751,43.940178
144.31657,22.85751,42.940178
144.31657,22.85751,41.940178
145.51921,23.047987,40.24547
145.51921,23.047987,39.24547
144.31657,22.85751,38.940178
144.31657,22.85751,37.940178
143.11394,22.667028,37.634888
143.11394,22.667028,36.634888
143.11394,22.667028,35.634888
143.11394,22.667028,34.634888
143.11394,22.667028,33.634888
143.11394,22.667028,32.634888
143.11394,22.667028,31.634888
143.11394,22.667028,30.634888
143.11394,22.667028,29.634888
143.11394,22.667028,28.634888
143.11394,22.667028,27.634888
143.11394,22.667028,26.634888
143.11394,22.667028,25.634888
143.11394,22.667028,24.634888
144.31657,22.85751,22.940178
144.31657,22.85751,21.940178
144.31657,22.85751,20.940178
144.31657,22.85751,19.940178
143.11394,22.667028,19.634888
143.11394,22.667028,18.634888
143.11394,22.667028,17.634888
143.11394,22.667028,16.634888
143.11394,22.667028,15.634888
143.11394,22.667028,14.634888
143.11394,22.667028,13.634888
143.11394,22.667028,12.634888
143.11394,22.667028,11.634888
143.11394,22.667028,10.634888
143.11394,22.667028,9.634888
143.11394,22.667028,8.634888
143.11394,22.667028,7.6348877
143.11394,22.667028,6.6348877
141.9113,22.476551,6.3295975
143.11394,22.667028,4.6348877
143.11394,22.667028,3.6348877
143.11394,22.667028,2.6348877
143.11394,22.667028,1.6348877
143.11394,22.667028,0.6348877
143.11394,22.667028,-0.3651123
143.11394,22.667028,-1.3651123
143.11394,22.667028,-2.3651123
143.11394,22.667028,-3.3651123
143.11394,22.667028,-4.3651123
143.11394,22.667028,-5.3651123
141.9113,22.476551,-5.6704025
141.9113,22.476551,-6.6704025
141.9113,22.476551,-7.6704025
141.9113,22.476551,-8.670403
141.9113,22.476551,-9.670403
143.11394,22.667028,-11.365112
143.11394,22.667028,-12.365112
143.11394,22.667028,-13.365112
19.24221,3.0476677,57.18994
19.24221,3.0476677,56.18994
16.836933,2.6667092,56.57936
13.229019,2.0952716,57.66349
13.229019,2.0952716,56.66349
12.0263815,1.9047924,56.3582
8.418467,1.3333546,57.442326
8.418467,1.3333546,56.442326
4.8105526,0.76191694,57.526455
4.8105526,0.76191694,56.526455
-0.0,-0.0,58.30529
-0.0,-0.0,57.30529
-4.8105526,-0.76191694,59.08413
-6.0131907,-0.9523962,58.778835
-7.215829,-1.1428754,58.473545
-7.215829,-1.1428754,57.473545
-10.823743,-1.7143131,58.557674
-10.823743,-1.7143131,57.557674
-14.431658,-2.2857509,58.6418
-16.836933,-2.6667092,59.03122
-19.24221,-3.0476677,59.42064
-18.039572,-2.8571887,57.72593
-18.039572,-2.8571887,56.72593
-15.634295,-2.4762301,54.33651
-15.634295,-2.4762301,53.33651
-15.634295,-2.4762301,52.33651
-15.634295,-2.4762301,51.33651
-16.836933,-2.6667092,51.03122
-16.836933,-2.6667092,50.03122
-16.836933,-2.6667092,49.03122
-16.836933,-2.6667092,48.03122
-18.039572,-2.8571887,47.72593
-18.039572,-2.8571887,46.72593
-18.039572,-2.8571887,45.72593
-18.039572,-2.8571887,44.72593
-18.039572,-2.8571887,43.72593
-18.039572,-2.8571887,42.72593
-16.836933,-2.6667092,41.03122
-18.039572,-2.8571887,40.72593
-18.039572,-2.8571887,39.72593
-18.039572,-2.8571887,38.72593
-18.039572,-2.8571887,37.72593
-18.039572,-2.8571887,36.72593
-18.039572,-2.8571887,35.72593
-18.039572,-2.8571887,34.72593
-18.039572,-2.8571887,33.72593
-18.039572,-2.8571887,32.72593
-18.039572,-2.8571887,31.72593
-18.039572,-2.8571887,30.72593
-18.039572,-2.8571887,29.72593
-18.039572,-2.8571887,28.72593
-18.039572,-2.8571887,27.72593
-18.039572,-2.8571887,26.72593
-16.836933,-2.6667092,25.03122
-16.836933,-2.6667092,24.03122
-16.836933,-2.6667092,23.03122
-16.836933,-2.6667092,22.03122
-16.836933,-2.6667092,21.03122
-16.836933,-2.6667092,20.03122
-16.836933,-2.6667092,19.03122
-16.836933,-2.6667092,18.03122
-16.836933,-2.6667092,17.03122
-16.836933,-2.6667092,16.03122
-16.836933,-2.6667092,15.03122
-16.836933,-2.6667092,14.03122
-18.039572,-2.8571887,13.725929
-18.039572,-2.8571887,12.725929
-18.039572,-2.8571887,11.725929
-18.039572,-2.8571887,10.725929
-18.039572,-2.8571887,9.725929
-18.039572,-2.8571887,8.725929
-18.039572,-2.8571887,7.7259293
-18.039572,-2.8571887,6.7259293
-18.039572,-2.8571887,5.7259293
-18.039572,-2.8571887,4.7259293
-18.039572,-2.8571887,3.7259293
-18.039572,-2.8571887,2.7259293
-18.039572,-2.8571887,1.7259293
-18.039572,-2.8571887,0.72592926
-20.444847,-3.238147,1.1153479
-20.444847,-3.238147,0.11534786
-22.850124,-3.6191056,0.50476646
-22.850124,-3.6191056,-0.49523354
-26.458038,-4.190543,0.5888939
-26.458038,-4.190543,-0.4111061
-28.863316,-4.5715017,-0.021687508
-30.065952,-4.761981,-0.32697868
-32.47123,-5.1429396,0.062440872
-34.876507,-5.523898,0.45185852
-36.079144,-5.7143774,0.1465683
-38.48442,-6.0953355,0.53598785
-38.48442,-6.0953355,-0.46401215
-42.092335,-6.666774,0.6201153
-43.29497,-6.8572526,0.31482315
-44.497612,-7.047732,0.0095329285
-46.902885,-7.42869,0.39895248
-49.308163,-7.809649,0.78837013
-49.308163,-7.809649,-0.21162987
-51.71344,-8.190607,0.17778778
-52.916077,-8.381086,-0.12750244
-55.321354,-8.762045,0.2619171
-56.52399,-8.952524,-0.043375015
-58.929268,-9.333483,0.34604263
-61.334545,-9.714441,0.7354622
-62.53718,-9.904921,0.43017197
-63.73982,-10.0954,0.124881744
-67.34773,-10.666837,1.2090073
-67.34773,-10.666837,0.20900726
-68.55037,-10.857316,-0.09628296
-70.95565,-11.238276,0.2931366
-73.36092,-11.619234,0.68255615
-74.56357,-11.809713,0.37726593
-75.766205,-12.000193,0.07197571
-76.96884,-12.190671,-0.23331833
-78.17148,-12.38115,-0.53860855
-80.57675,-12.762109,-0.149189
-82.98203,-13.143068,0.24023056
-84.18467,-13.333548,-0.06505966
-85.38731,-13.524027,-0.3703537
-88.995224,-14.095464,0.71377563
-90.19786,-14.285943,0.4084854
-91.4005,-14.476422,0.10319519
-92.603134,-14.666902,-0.20209503
-95.008415,-15.047861,0.18732071
-97.41369,-15.428819,0.57674026
-97.41369,-15.428819,-0.42325974
-99.81896,-15.809777,-0.03384018
-101.0216,-16.000256,-0.3391304
-105.83215,-16.762173,1.4397049
-105.83215,-16.762173,0.4397049
-107.03479,-16.952652,0.13441467
-107.03479,-16.952652,-0.8655853
-110.64271,-17.52409,0.218544
-113.04798,-17.905048,0.60796356
-115.45326,-18.286007,0.9973755
-115.45326,-18.286007,-0.0026245117
-117.858536,-18.666965,0.38679504
-120.26381,-19.047924,0.7762146
-121.46645,-19.238403,0.47092438
-123.87173,-19.619362,0.86034393
-126.277,-20.00032,1.2497635
-126.277,-20.00032,0.24976349
-129.88492,-20.571758,1.3338928
-129.88492,-20.571758,0.33389282
-131.08755,-20.762238,0.0286026
-134.69547,-21.333673,1.1127243
-134.69547,-21.333673,0.112724304
-134.69547,-21.333673,-0.8872757
-134.69547,-21.333673,-1.8872757
-134.69547,-21.333673,-2.8872757
-134.69547,-21.333673,-3.8872757
-134.69547,-21.333673,-4.8872757
// image  089
145.31508,15.2732115,283.9402
145.31508,15.2732115,282.9402
145.31508,15.2732115,281.9402
145.31508,15.2732115,280.9402
145.31508,15.2732115,279.9402
145.31508,15.2732115,278.9402
145.31508,15.2732115,277.9402
145.31508,15.2732115,276.9402
145.31508,15.2732115,275.9402
145.31508,15.2732115,274.9402
145.31508,15.2732115,273.9402
145.31508,15.2732115,272.9402
145.31508,15.2732115,271.9402
145.31508,15.2732115,270.9402
145.31508,15.2732115,269.9402
145.31508,15.2732115,268.9402
145.31508,15.2732115,267.9402
145.31508,15.2732115,266.9402
145.31508,15.2732115,265.9402
145.31508,15.2732115,264.9402
145.31508,15.2732115,263.9402
145.31508,15.2732115,262.9402
145.31508,15.2732115,261.9402
145.31508,15.2732115,260.9402
146.52603,15.400487,259.24548
146.52603,15.400487,258.24548
146.52603,15.400487,257.24548
146.52603,15.400487,256.24548
146.52603,15.400487,255.24547
146.52603,15.400487,254.24547
146.52603,15.400487,253.24547
146.52603,15.400487,252.24547
146.52603,15.400487,251.24547
146.52603,15.400487,250.24547
145.31508,15.2732115,249.94019
145.31508,15.2732115,248.94019
145.31508,15.2732115,247.94019
145.31508,15.2732115,246.94019
146.52603,15.400487,245.24547
146.52603,15.400487,244.24547
146.52603,15.400487,243.24547
146.52603,15.400487,242.24547
146.52603,15.400487,241.24547
146.52603,15.400487,240.24547
146.52603,15.400487,239.24547
146.52603,15.400487,238.24547
146.52603,15.400487,237.24547
146.52603,15.400487,236.24547
146.52603,15.400487,235.24547
146.52603,15.400487,234.24547
146.52603,15.400487,233.24547
146.52603,15.400487,232.24547
146.52603,15.400487,231.24547
146.52603,15.400487,230.24547
146.52603,15.400487,229.24547
146.52603,15.400487,228.24547
146.52603,15.400487,227.24547
146.52603,15.400487,226.24547
146.52603,15.400487,225.24547
146.52603,15.400487,224.24547
146.52603,15.400487,223.24547
146.52603,15.400487,222.24547
146.52603,15.400487,221.24547
146.52603,15.400487,220.24547
146.52603,15.400487,219.24547
146.52603,15.400487,218.24547
146.52603,15.400487,217.24547
146.52603,15.400487,216.24547
146.52603,15.400487,215.24547
146.52603,15.400487,214.24547
146.52603,15.400487,213.24547
146.52603,15.400487,212.24547
146.52603,15.400487,211.24547
