// image  001
-54.49315,5.7274814,-4.4327927
-56.915066,5.982036,-4.043375
-56.915066,5.982036,-5.043375
-60.54794,6.363868,-3.9592476
-60.54794,6.363868,-4.9592476
-65.39178,6.8729777,-3.1804085
-65.39178,6.8729777,-4.1804085
-67.81369,7.127532,-3.7909927
-70.23562,7.3820877,-3.4015732
-72.65753,7.636642,-3.0121536
-72.65753,7.636642,-4.0121536
-76.290405,8.018474,-2.9280243
-76.290405,8.018474,-3.9280243
-81.13424,8.527583,-2.149189
-81.13424,8.527583,-3.149189
-84.76712,8.909416,-2.0650597
-84.76712,8.909416,-3.0650597
-88.399994,9.291247,-1.9809341
-89.610954,9.418525,-2.2862244
-94.45479,9.927634,-1.5073891
-95.66576,10.054913,-1.8126793
-95.66576,10.054913,-2.8126793
-101.72054,10.6912985,-1.3391304
-105.35342,11.073131,-0.25500488
-105.35342,11.073131,-1.2550049
-108.9863,11.454963,-0.17087555
-108.9863,11.454963,-1.1708755
-113.83013,11.964072,0.60796356
-113.83013,11.964072,-0.39203644
// image  094
155.14032,-24.571825,282.6878
155.14032,-24.571825,281.6878
155.14032,-24.571825,280.6878
155.14032,-24.571825,279.6878
155.14032,-24.571825,278.6878
155.14032,-24.571825,275.6878
153.93768,-24.381346,275.3825
153.93768,-24.381346,274.3825
155.14032,-24.571825,272.6878
155.14032,-24.571825,271.6878
155.14032,-24.571825,270.6878
155.14032,-24.571825,269.6878
155.14032,-24.571825,268.6878
155.14032,-24.571825,267.6878
155.14032,-24.571825,266.6878
155.14032,-24.571825,265.6878
155.14032,-24.571825,264.6878
155.14032,-24.571825,263.6878
155.14032,-24.571825,262.6878
155.14032,-24.571825,261.6878
155.14032,-24.571825,260.6878
155.14032,-24.571825,259.6878
155.14032,-24.571825,258.6878
155.14032,-24.571825,257.6878
155.14032,-24.571825,229.6878
155.14032,-24.571825,228.6878
155.14032,-24.571825,227.6878
155.14032,-24.571825,226.6878
155.14032,-24.571825,225.6878
155.14032,-24.571825,224.6878
155.14032,-24.571825,223.6878
155.14032,-24.571825,211.6878
153.93768,-24.381346,211.3825
153.93768,-24.381346,210.3825
153.93768,-24.381346,209.3825
153.93768,-24.381346,208.3825
155.14032,-24.571825,206.6878
155.14032,-24.571825,205.6878
155.14032,-24.571825,204.6878
155.14032,-24.571825,203.6878
155.14032,-24.571825,202.6878
155.14032,-24.571825,201.6878
153.93768,-24.381346,201.3825
153.93768,-24.381346,200.3825
153.93768,-24.381346,199.3825
153.93768,-24.381346,198.3825
153.93768,-24.381346,197.3825
153.93768,-24.381346,196.3825
155.14032,-24.571825,194.6878
155.14032,-24.571825,193.6878
153.93768,-24.381346,193.3825
153.93768,-24.381346,192.3825
153.93768,-24.381346,191.3825
153.93768,-24.381346,190.3825
153.93768,-24.381346,189.3825
153.93768,-24.381346,188.3825
153.93768,-24.381346,187.3825
153.93768,-24.381346,186.3825
153.93768,-24.381346,185.3825
153.93768,-24.381346,184.3825
153.93768,-24.381346,183.3825
153.93768,-24.381346,182.3825
153.93768,-24.381346,181.3825
153.93768,-24.381346,180.3825
153.93768,-24.381346,179.3825
153.93768,-24.381346,178.3825
153.93768,-24.381346,177.3825
153.93768,-24.381346,176.3825
153.93768,-24.381346,175.3825
153.93768,-24.381346,174.3825
153.93768,-24.381346,173.3825
153.93768,-24.381346,172.3825
153.93768,-24.381346,171.3825
153.93768,-24.381346,170.3825
153.93768,-24.381346,169.3825
153.93768,-24.381346,168.3825
153.93768,-24.381346,167.3825
153.93768,-24.381346,166.3825
153.93768,-24.381346,165.3825
153.93768,-24.381346,164.3825
153.93768,-24.381346,163.3825
153.93768,-24.381346,162.3825
153.93768,-24.381346,161.3825
153.93768,-24.381346,160.3825
153.93768,-24.381346,159.3825
153.93768,-24.381346,158.3825
153.93768,-24.381346,157.3825
153.93768,-24.381346,156.3825
153.93768,-24.381346,155.3825
153.93768,-24.381346,148.3825
152.73505,-24.190866,148.07721
152.73505,-24.190866,147.07721
152.73505,-24.190866,146.07721
152.73505,-24.190866,145.07721
152.73505,-24.190866,144.07721
152.73505,-24.190866,143.07721
152.73505,-24.190866,142.07721
152.73505,-24.190866,141.07721
152.73505,-24.190866,140.07721
152.73505,-24.190866,139.07721
152.73505,-24.190866,138.07721
152.73505,-24.190866,137.07721
152.73505,-24.190866,136.07721
152.73505,-24.190866,135.07721
152.73505,-24.190866,134.07721
1.2026381,-0.19047926,192.61058
-1.2026381,0.19047926,193.0
-1.2026381,0.19047926,192.0
-2.4052763,0.38095853,191.6947
-3.6079144,0.5714378,191.38942
-3.6079144,0.5714378,190.38942
-4.8105526,0.76191705,190.08412
-4.8105526,0.76191705,189.08412
-6.0131907,0.95239633,188.77884
-7.215829,1.1428756,188.47354
-7.215829,1.1428756,187.47354
-7.215829,1.1428756,186.47354
-7.215829,1.1428756,185.47354
-7.215829,1.1428756,184.47354
-8.418467,1.3333547,184.16826
-8.418467,1.3333547,183.16826
-8.418467,1.3333547,182.16826
-8.418467,1.3333547,181.16826
-9.621105,1.5238341,180.86296
-9.621105,1.5238341,179.86296
-9.621105,1.5238341,178.86296
-10.823743,1.7143134,178.55768
-10.823743,1.7143134,177.55768
-12.0263815,1.9047927,177.25238
-12.0263815,1.9047927,176.25238
-12.0263815,1.9047927,175.25238
-12.0263815,1.9047927,174.25238
-13.229019,2.0952718,173.9471
-14.431658,2.285751,173.6418
-14.431658,2.285751,172.6418
-16.836933,2.6667094,173.03122
-20.444847,3.2381473,174.11534
-20.444847,3.2381473,173.11534
-21.647486,3.4286268,172.81006
-22.850124,3.6191058,172.50476
-24.052763,3.8095853,172.19948
-24.052763,3.8095853,171.19948
-24.052763,3.8095853,170.19948
-24.052763,3.8095853,169.19948
-25.2554,4.0000644,168.89418
-16.836933,2.6667094,161.03122
-16.836933,2.6667094,160.03122
-16.836933,2.6667094,159.03122
-16.836933,2.6667094,158.03122
-16.836933,2.6667094,157.03122
-16.836933,2.6667094,156.03122
-16.836933,2.6667094,155.03122
-16.836933,2.6667094,154.03122
-16.836933,2.6667094,153.03122
-16.836933,2.6667094,152.03122
-16.836933,2.6667094,151.03122
-16.836933,2.6667094,150.03122
-16.836933,2.6667094,149.03122
-16.836933,2.6667094,148.03122
-15.634295,2.4762304,146.33652
-15.634295,2.4762304,145.33652
-14.431658,2.285751,141.6418
-14.431658,2.285751,140.6418
-14.431658,2.285751,139.6418
-14.431658,2.285751,138.6418
-14.431658,2.285751,137.6418
-14.431658,2.285751,136.6418
-14.431658,2.285751,135.6418
-14.431658,2.285751,134.6418
-14.431658,2.285751,133.6418
-14.431658,2.285751,132.6418
-14.431658,2.285751,131.6418
-14.431658,2.285751,130.6418
-14.431658,2.285751,129.6418
-14.431658,2.285751,128.6418
-13.229019,2.0952718,126.94709
-13.229019,2.0952718,125.94709
-13.229019,2.0952718,124.94709
-14.431658,2.285751,124.6418
-13.229019,2.0952718,122.94709
-13.229019,2.0952718,121.94709
-12.0263815,1.9047927,120.25238
-12.0263815,1.9047927,119.25238
-10.823743,1.7143134,117.55767
-8.418467,1.3333547,115.16826
-8.418467,1.3333547,114.16826
-7.215829,1.1428756,112.47355
-7.215829,1.1428756,111.47355
-7.215829,1.1428756,110.47355
-8.418467,1.3333547,110.16826
-9.621105,1.5238341,109.86296
-10.823743,1.7143134,109.55767
-12.0263815,1.9047927,109.25238
-12.0263815,1.9047927,108.25238
-13.229019,2.0952718,107.94709
-13.229019,2.0952718,106.94709
-14.431658,2.285751,106.6418
-14.431658,2.285751,105.6418
-14.431658,2.285751,104.6418
-14.431658,2.285751,103.6418
-14.431658,2.285751,102.6418
-14.431658,2.285751,101.6418
-15.634295,2.4762304,101.33651
-15.634295,2.4762304,100.33651
-16.836933,2.6667094,100.03122
-16.836933,2.6667094,99.03122
-16.836933,2.6667094,98.03122
-16.836933,2.6667094,97.03122
-16.836933,2.6667094,96.03122
-16.836933,2.6667094,95.03122
-16.836933,2.6667094,94.03122
-16.836933,2.6667094,93.03122
-16.836933,2.6667094,92.03122
-16.836933,2.6667094,91.03122
-16.836933,2.6667094,90.03122
-16.836933,2.6667094,89.03122
-18.039572,2.857189,88.72593
-18.039572,2.857189,87.72593
-19.24221,3.0476682,87.42064
-19.24221,3.0476682,86.42064
-19.24221,3.0476682,85.42064
-19.24221,3.0476682,84.42064
-20.444847,3.2381473,84.11535
-20.444847,3.2381473,83.11535
-21.647486,3.4286268,82.81006
-21.647486,3.4286268,81.81006
-27.660677,4.381023,84.2836
-27.660677,4.381023,83.2836
-30.065952,4.7619815,83.67302
-31.26859,4.952461,83.36773
-31.26859,4.952461,82.36773
-32.47123,5.14294,82.06244
-33.673866,5.333419,81.75715
-33.673866,5.333419,80.75715
-33.673866,5.333419,79.75715
-33.673866,5.333419,78.75715
-46.902885,7.428691,76.39896
-48.105526,7.6191707,76.09366
-50.5108,8.000129,76.48308
-51.71344,8.190608,76.17779
-52.916077,8.381087,75.8725
-54.118717,8.571567,75.56721
-55.321354,8.762046,75.26192
-56.52399,8.952525,74.95663
-57.72663,9.143004,74.65134
-56.52399,8.952525,72.95663
-56.52399,8.952525,71.95663
-56.52399,8.952525,70.95663
-56.52399,8.952525,69.95663
-56.52399,8.952525,68.95663
-57.72663,9.143004,68.65134
-57.72663,9.143004,67.65134
-57.72663,9.143004,66.65134
-58.929268,9.333484,66.34604
-61.334545,9.714442,66.73546
-62.53718,9.904922,66.430176
-62.53718,9.904922,65.430176
-66.145096,10.476359,66.5143
-66.145096,10.476359,65.5143
-67.34773,10.666838,65.20901
-68.55037,10.857317,64.90372
-69.75301,11.047797,64.59843
-69.75301,11.047797,63.598427
-68.55037,10.857317,59.903717
-68.55037,10.857317,58.903717
-68.55037,10.857317,57.903717
-50.5108,8.000129,40.483078
-50.5108,8.000129,39.483078
-50.5108,8.000129,38.483078
-50.5108,8.000129,37.483078
-50.5108,8.000129,36.483078
-51.71344,8.190608,36.177788
-52.916077,8.381087,35.872498
-52.916077,8.381087,34.872498
-52.916077,8.381087,33.872498
-52.916077,8.381087,32.872498
-52.916077,8.381087,31.872498
-52.916077,8.381087,30.872498
-54.118717,8.571567,30.567207
-54.118717,8.571567,29.567207
-54.118717,8.571567,28.567207
-54.118717,8.571567,27.567207
-54.118717,8.571567,26.567207
-54.118717,8.571567,25.567207
-52.916077,8.381087,23.872498
-52.916077,8.381087,22.872498
-52.916077,8.381087,21.872498
-52.916077,8.381087,20.872498
-51.71344,8.190608,19.177788
-46.902885,7.428691,15.3989525
-46.902885,7.428691,14.3989525
-46.902885,7.428691,13.3989525
-46.902885,7.428691,12.3989525
-46.902885,7.428691,11.3989525
-46.902885,7.428691,10.3989525
-45.70025,7.2382116,8.704243
-45.70025,7.2382116,7.7042427
-45.70025,7.2382116,6.7042427
-45.70025,7.2382116,5.7042427
-30.065952,4.7619815,-4.3269787
-30.065952,4.7619815,-5.3269787
-31.26859,4.952461,-5.632269
-32.47123,5.14294,-5.937559
-33.673866,5.333419,-6.2428493
-33.673866,5.333419,-7.2428493
-37.281784,5.904857,-6.158722
-39.687057,6.2858152,-5.7693043
-40.889694,6.4762945,-6.0745945
-45.70025,7.2382116,-4.2957573
-45.70025,7.2382116,-5.2957573
-46.902885,7.428691,-5.6010475
-46.902885,7.428691,-6.6010475
-51.71344,8.190608,-4.822212
-52.916077,8.381087,-5.1275024
-56.52399,8.952525,-4.043375
-56.52399,8.952525,-5.043375
-60.131905,9.523963,-3.9592476
-60.131905,9.523963,-4.9592476
-64.94246,10.28588,-3.1804085
-64.94246,10.28588,-4.1804085
-67.34773,10.666838,-3.7909927
-69.75301,11.047797,-3.4015732
-72.15829,11.428756,-3.0121536
-73.36092,11.619235,-3.3174438
-75.766205,12.000194,-2.9280243
-75.766205,12.000194,-3.9280243
-80.57675,12.76211,-2.149189
-80.57675,12.76211,-3.149189
-84.18467,13.333549,-2.0650597
-84.18467,13.333549,-3.0650597
-87.79258,13.904986,-1.9809341
-88.995224,14.095465,-2.2862244
-93.80577,14.857382,-1.5073891
-95.008415,15.047862,-1.8126793
-95.008415,15.047862,-2.8126793
-99.81896,15.809778,-1.0338402
-101.0216,16.000257,-1.3391304
-104.62952,16.571695,-0.25500488
-103.42688,16.381216,-1.9497147
-108.237434,17.143133,-0.17087555
-108.237434,17.143133,-1.1708755
-113.04798,17.90505,0.60796356
-113.04798,17.90505,-0.39203644
-114.25062,18.09553,-0.69732666
// image  095
153.64172,-32.657597,282.6878
153.64172,-32.657597,281.6878
153.64172,-32.657597,280.6878
153.64172,-32.657597,279.6878
153.64172,-32.657597,278.6878
153.64172,-32.657597,275.6878
152.4507,-32.404434,275.3825
152.4507,-32.404434,274.3825
153.64172,-32.657597,272.6878
153.64172,-32.657597,271.6878
153.64172,-32.657597,270.6878
153.64172,-32.657597,269.6878
153.64172,-32.657597,268.6878
153.64172,-32.657597,267.6878
153.64172,-32.657597,266.6878
153.64172,-32.657597,265.6878
153.64172,-32.657597,264.6878
153.64172,-32.657597,263.6878
153.64172,-32.657597,262.6878
153.64172,-32.657597,261.6878
153.64172,-32.657597,260.6878
153.64172,-32.657597,259.6878
153.64172,-32.657597,258.6878
153.64172,-32.657597,257.6878
153.64172,-32.657597,229.6878
153.64172,-32.657597,228.6878
153.64172,-32.657597,227.6878
153.64172,-32.657597,226.6878
153.64172,-32.657597,225.6878
153.64172,-32.657597,224.6878
153.64172,-32.657597,223.6878
153.64172,-32.657597,211.6878
152.4507,-32.404434,211.3825
152.4507,-32.404434,210.3825
152.4507,-32.404434,209.3825
152.4507,-32.404434,208.3825
153.64172,-32.657597,206.6878
153.64172,-32.657597,205.6878
153.64172,-32.657597,204.6878
153.64172,-32.657597,203.6878
153.64172,-32.657597,202.6878
153.64172,-32.657597,201.6878
153.64172,-32.657597,200.6878
152.4507,-32.404434,200.3825
152.4507,-32.404434,199.3825
152.4507,-32.404434,198.3825
152.4507,-32.404434,197.3825
152.4507,-32.404434,196.3825
153.64172,-32.657597,194.6878
153.64172,-32.657597,193.6878
153.64172,-32.657597,192.6878
152.4507,-32.404434,192.3825
152.4507,-32.404434,191.3825
152.4507,-32.404434,190.3825
152.4507,-32.404434,189.3825
152.4507,-32.404434,188.3825
152.4507,-32.404434,187.3825
152.4507,-32.404434,186.3825
152.4507,-32.404434,185.3825
152.4507,-32.404434,184.3825
152.4507,-32.404434,183.3825
152.4507,-32.404434,182.3825
152.4507,-32.404434,181.3825
152.4507,-32.404434,180.3825
152.4507,-32.404434,179.3825
152.4507,-32.404434,178.3825
152.4507,-32.404434,177.3825
152.4507,-32.404434,176.3825
152.4507,-32.404434,175.3825
152.4507,-32.404434,174.3825
152.4507,-32.404434,173.3825
152.4507,-32.404434,172.3825
152.4507,-32.404434,171.3825
152.4507,-32.404434,170.3825
152.4507,-32.404434,169.3825
152.4507,-32.404434,168.3825
152.4507,-32.404434,167.3825
152.4507,-32.404434,166.3825
152.4507,-32.404434,165.3825
152.4507,-32.404434,164.3825
152.4507,-32.404434,163.3825
152.4507,-32.404434,162.3825
152.4507,-32.404434,161.3825
152.4507,-32.404434,160.3825
152.4507,-32.404434,159.3825
152.4507,-32.404434,158.3825
152.4507,-32.404434,157.3825
152.4507,-32.404434,156.3825
152.4507,-32.404434,155.3825
151.25967,-32.151276,148.07721
151.25967,-32.151276,147.07721
151.25967,-32.151276,146.07721
151.25967,-32.151276,145.07721
151.25967,-32.151276,144.07721
151.25967,-32.151276,143.07721
151.25967,-32.151276,142.07721
151.25967,-32.151276,141.07721
151.25967,-32.151276,140.07721
151.25967,-32.151276,139.07721
151.25967,-32.151276,138.07721
151.25967,-32.151276,137.07721
151.25967,-32.151276,136.07721
151.25967,-32.151276,135.07721
151.25967,-32.151276,134.07721
1.1910211,-0.25315964,192.61058
-1.1910211,0.25315964,193.0
-1.1910211,0.25315964,192.0
-2.3820422,0.5063193,191.6947
-2.3820422,0.5063193,190.6947
-3.5730631,0.7594789,190.38942
-4.7640843,1.0126386,190.08412
-4.7640843,1.0126386,189.08412
-4.7640843,1.0126386,188.08412
-5.9551053,1.2657983,187.77884
-7.1461263,1.5189579,187.47354
-7.1461263,1.5189579,186.47354
-7.1461263,1.5189579,185.47354
-7.1461263,1.5189579,184.47354
-7.1461263,1.5189579,183.47354
-8.337147,1.7721175,183.16826
-8.337147,1.7721175,182.16826
-8.337147,1.7721175,181.16826
-8.337147,1.7721175,180.16826
-9.528169,2.0252771,179.86296
-9.528169,2.0252771,178.86296
-10.71919,2.278437,178.55768
-10.71919,2.278437,177.55768
-10.71919,2.278437,176.55768
-11.910211,2.5315967,176.25238
-11.910211,2.5315967,175.25238
-11.910211,2.5315967,174.25238
-13.101232,2.784756,173.9471
-14.292253,3.0379157,173.6418
-14.292253,3.0379157,172.6418
-16.674294,3.544235,173.03122
-20.247356,4.303714,174.11534
-20.247356,4.303714,173.11534
-21.43838,4.556874,172.81006
-22.6294,4.8100333,172.50476
-23.820421,5.0631933,172.19948
-23.820421,5.0631933,171.19948
-23.820421,5.0631933,170.19948
-23.820421,5.0631933,169.19948
-23.820421,5.0631933,168.19948
-16.674294,3.544235,162.03122
-16.674294,3.544235,161.03122
-16.674294,3.544235,160.03122
-15.4832735,3.2910755,158.33652
-15.4832735,3.2910755,157.33652
-15.4832735,3.2910755,156.33652
-16.674294,3.544235,156.03122
-16.674294,3.544235,155.03122
-16.674294,3.544235,154.03122
-16.674294,3.544235,153.03122
-16.674294,3.544235,152.03122
-16.674294,3.544235,151.03122
-16.674294,3.544235,150.03122
-16.674294,3.544235,149.03122
-16.674294,3.544235,148.03122
-15.4832735,3.2910755,146.33652
-14.292253,3.0379157,144.6418
-14.292253,3.0379157,143.6418
-14.292253,3.0379157,142.6418
-13.101232,2.784756,140.9471
-13.101232,2.784756,139.9471
-13.101232,2.784756,138.9471
-14.292253,3.0379157,138.6418
-14.292253,3.0379157,137.6418
-14.292253,3.0379157,136.6418
-14.292253,3.0379157,135.6418
-14.292253,3.0379157,134.6418
-14.292253,3.0379157,133.6418
-14.292253,3.0379157,132.6418
-14.292253,3.0379157,131.6418
-14.292253,3.0379157,130.6418
-14.292253,3.0379157,129.6418
-14.292253,3.0379157,128.6418
-13.101232,2.784756,126.94709
-13.101232,2.784756,125.94709
-13.101232,2.784756,124.94709
-14.292253,3.0379157,124.6418
-13.101232,2.784756,122.94709
-13.101232,2.784756,121.94709
-13.101232,2.784756,120.94709
-11.910211,2.5315967,119.25238
-10.71919,2.278437,117.55767
-8.337147,1.7721175,115.16826
-8.337147,1.7721175,114.16826
-7.1461263,1.5189579,112.47355
-7.1461263,1.5189579,111.47355
-7.1461263,1.5189579,110.47355
-8.337147,1.7721175,110.16826
-9.528169,2.0252771,109.86296
-10.71919,2.278437,109.55767
-11.910211,2.5315967,109.25238
-11.910211,2.5315967,108.25238
-13.101232,2.784756,107.94709
-13.101232,2.784756,106.94709
-14.292253,3.0379157,106.6418
-14.292253,3.0379157,105.6418
-14.292253,3.0379157,104.6418
-14.292253,3.0379157,103.6418
-14.292253,3.0379157,102.6418
-14.292253,3.0379157,101.6418
-15.4832735,3.2910755,101.33651
-15.4832735,3.2910755,100.33651
-16.674294,3.544235,100.03122
-16.674294,3.544235,99.03122
-16.674294,3.544235,98.03122
-16.674294,3.544235,97.03122
-16.674294,3.544235,96.03122
-16.674294,3.544235,95.03122
-16.674294,3.544235,94.03122
-17.865316,3.7973948,93.72593
-17.865316,3.7973948,92.72593
-17.865316,3.7973948,91.72593
-17.865316,3.7973948,90.72593
-17.865316,3.7973948,89.72593
-17.865316,3.7973948,88.72593
-19.056337,4.0505543,88.42064
-19.056337,4.0505543,87.42064
-19.056337,4.0505543,86.42064
-19.056337,4.0505543,85.42064
-19.056337,4.0505543,84.42064
-19.056337,4.0505543,83.42064
-20.247356,4.303714,83.11535
-20.247356,4.303714,82.11535
-20.247356,4.303714,81.11535
-28.584505,6.0758314,84.97831
-27.393484,5.822672,83.2836
-27.393484,5.822672,82.2836
-29.775526,6.328991,82.67302
-30.966547,6.582151,82.36773
-30.966547,6.582151,81.36773
-32.157566,6.8353105,81.06244
-33.348587,7.08847,80.75715
-33.348587,7.08847,79.75715
-33.348587,7.08847,78.75715
-33.348587,7.08847,77.75715
-46.449818,9.873226,76.39896
-46.449818,9.873226,75.39896
-50.022884,10.632706,76.48308
-51.213905,10.885864,76.17779
-53.595947,11.392184,76.56721
-53.595947,11.392184,75.56721
-54.78697,11.645344,75.26192
-55.97799,11.898503,74.95663
-55.97799,11.898503,73.95663
-55.97799,11.898503,72.95663
-55.97799,11.898503,71.95663
-55.97799,11.898503,70.95663
-55.97799,11.898503,69.95663
-57.16901,12.151663,69.65134
-57.16901,12.151663,68.65134
-55.97799,11.898503,66.95663
-55.97799,11.898503,65.95663
-58.36003,12.404822,66.34604
-59.551052,12.657982,66.04076
-60.742073,12.911142,65.73546
-60.742073,12.911142,64.73546
-60.742073,12.911142,63.735462
-60.742073,12.911142,62.735462
-50.022884,10.632706,40.483078
-50.022884,10.632706,39.483078
-50.022884,10.632706,38.483078
-50.022884,10.632706,37.483078
-50.022884,10.632706,36.483078
-50.022884,10.632706,35.483078
-51.213905,10.885864,35.177788
-51.213905,10.885864,34.177788
-51.213905,10.885864,33.177788
-52.404926,11.139024,32.872498
-52.404926,11.139024,31.872498
-52.404926,11.139024,30.872498
-52.404926,11.139024,29.872498
-53.595947,11.392184,29.567207
-53.595947,11.392184,28.567207
-53.595947,11.392184,27.567207
-53.595947,11.392184,26.567207
-54.78697,11.645344,26.261917
-54.78697,11.645344,25.261917
-54.78697,11.645344,24.261917
-53.595947,11.392184,22.567207
-53.595947,11.392184,21.567207
-53.595947,11.392184,20.567207
-52.404926,11.139024,18.872498
-47.640842,10.126387,13.09366
-47.640842,10.126387,12.09366
-47.640842,10.126387,11.09366
-47.640842,10.126387,10.09366
-46.449818,9.873226,8.3989525
-47.640842,10.126387,8.09366
-46.449818,9.873226,6.3989525
-46.449818,9.873226,5.3989525
-46.449818,9.873226,4.3989525
-46.449818,9.873226,3.3989525
-35.730633,7.5947895,-4.8534317
-35.730633,7.5947895,-5.8534317
-35.730633,7.5947895,-6.8534317
-39.30369,8.354268,-5.7693043
-40.494713,8.607428,-6.0745945
-42.87676,9.113748,-5.685177
-45.2588,9.620067,-5.2957573
-46.449818,9.873226,-5.6010475
-46.449818,9.873226,-6.6010475
-52.404926,11.139024,-4.1275024
-52.404926,11.139024,-5.1275024
-55.97799,11.898503,-4.043375
-55.97799,11.898503,-5.043375
-59.551052,12.657982,-3.9592476
-59.551052,12.657982,-4.9592476
-64.31513,13.670621,-3.1804085
-64.31513,13.670621,-4.1804085
-66.697174,14.17694,-3.7909927
-69.07922,14.68326,-3.4015732
-70.27024,14.9364195,-3.7068634
-72.65228,15.442739,-3.3174438
-75.034325,15.949058,-2.9280243
-75.034325,15.949058,-3.9280243
-79.79841,16.961697,-2.149189
-79.79841,16.961697,-3.149189
-83.371475,17.721176,-2.0650597
-83.371475,17.721176,-3.0650597
-88.13556,18.733814,-1.2862244
-88.13556,18.733814,-2.2862244
-92.899635,19.746452,-0.50738907
-92.899635,19.746452,-1.5073891
-94.09067,19.999613,-1.8126793
-94.09067,19.999613,-2.8126793
-100.04577,21.265411,-1.3391304
-103.61883,22.024889,-0.25500488
-103.61883,22.024889,-1.2550049
-107.191895,22.784369,-0.17087555
-107.191895,22.784369,-1.1708755
-111.95598,23.797007,0.60796356
-111.95598,23.797007,-0.39203644
// image  096
151.722,-40.65378,282.6878
151.722,-40.65378,281.6878
151.722,-40.65378,280.6878
151.722,-40.65378,279.6878
151.722,-40.65378,278.6878
151.722,-40.65378,275.6878
150.54585,-40.338634,275.3825
150.54585,-40.338634,274.3825
150.54585,-40.338634,273.3825
151.722,-40.65378,271.6878
151.722,-40.65378,270.6878
151.722,-40.65378,269.6878
151.722,-40.65378,268.6878
151.722,-40.65378,267.6878
151.722,-40.65378,266.6878
151.722,-40.65378,265.6878
151.722,-40.65378,264.6878
151.722,-40.65378,263.6878
151.722,-40.65378,262.6878
151.722,-40.65378,261.6878
151.722,-40.65378,260.6878
151.722,-40.65378,259.6878
151.722,-40.65378,258.6878
151.722,-40.65378,257.6878
151.722,-40.65378,230.6878
151.722,-40.65378,229.6878
151.722,-40.65378,228.6878
151.722,-40.65378,227.6878
151.722,-40.65378,226.6878
151.722,-40.65378,225.6878
151.722,-40.65378,224.6878
151.722,-40.65378,223.6878
150.54585,-40.338634,223.3825
151.722,-40.65378,211.6878
150.54585,-40.338634,211.3825
150.54585,-40.338634,210.3825
150.54585,-40.338634,209.3825
150.54585,-40.338634,208.3825
151.722,-40.65378,206.6878
151.722,-40.65378,205.6878
151.722,-40.65378,204.6878
151.722,-40.65378,203.6878
151.722,-40.65378,202.6878
151.722,-40.65378,201.6878
151.722,-40.65378,200.6878
151.722,-40.65378,199.6878
150.54585,-40.338634,199.3825
151.722,-40.65378,197.6878
151.722,-40.65378,196.6878
151.722,-40.65378,195.6878
151.722,-40.65378,194.6878
151.722,-40.65378,193.6878
151.722,-40.65378,192.6878
150.54585,-40.338634,192.3825
150.54585,-40.338634,191.3825
150.54585,-40.338634,190.3825
150.54585,-40.338634,189.3825
150.54585,-40.338634,188.3825
150.54585,-40.338634,187.3825
150.54585,-40.338634,186.3825
150.54585,-40.338634,185.3825
150.54585,-40.338634,184.3825
150.54585,-40.338634,183.3825
150.54585,-40.338634,182.3825
150.54585,-40.338634,181.3825
150.54585,-40.338634,180.3825
150.54585,-40.338634,179.3825
150.54585,-40.338634,178.3825
150.54585,-40.338634,177.3825
150.54585,-40.338634,176.3825
150.54585,-40.338634,175.3825
150.54585,-40.338634,174.3825
150.54585,-40.338634,173.3825
150.54585,-40.338634,172.3825
150.54585,-40.338634,171.3825
150.54585,-40.338634,170.3825
150.54585,-40.338634,169.3825
150.54585,-40.338634,168.3825
150.54585,-40.338634,167.3825
150.54585,-40.338634,166.3825
150.54585,-40.338634,165.3825
150.54585,-40.338634,164.3825
150.54585,-40.338634,163.3825
150.54585,-40.338634,162.3825
150.54585,-40.338634,161.3825
150.54585,-40.338634,160.3825
150.54585,-40.338634,159.3825
150.54585,-40.338634,158.3825
150.54585,-40.338634,157.3825
150.54585,-40.338634,156.3825
150.54585,-40.338634,155.3825
150.54585,-40.338634,148.3825
149.36972,-40.02349,148.07721
149.36972,-40.02349,147.07721
149.36972,-40.02349,146.07721
149.36972,-40.02349,145.07721
149.36972,-40.02349,144.07721
149.36972,-40.02349,143.07721
149.36972,-40.02349,142.07721
149.36972,-40.02349,141.07721
149.36972,-40.02349,140.07721
149.36972,-40.02349,139.07721
149.36972,-40.02349,138.07721
149.36972,-40.02349,137.07721
149.36972,-40.02349,136.07721
149.36972,-40.02349,135.07721
149.36972,-40.02349,134.07721
149.36972,-40.02349,133.07721
1.1761395,-0.31514558,192.61058
-1.1761395,0.31514558,193.0
-1.1761395,0.31514558,192.0
-2.352279,0.63029116,191.6947
-2.352279,0.63029116,190.6947
-3.5284183,0.9454368,190.38942
-4.704558,1.2605823,190.08412
-4.704558,1.2605823,189.08412
-4.704558,1.2605823,188.08412
-5.8806977,1.5757279,187.77884
-7.0568366,1.8908736,187.47354
-7.0568366,1.8908736,186.47354
-7.0568366,1.8908736,185.47354
-7.0568366,1.8908736,184.47354
-7.0568366,1.8908736,183.47354
-8.232976,2.2060192,183.16826
-8.232976,2.2060192,182.16826
-8.232976,2.2060192,181.16826
-8.232976,2.2060192,180.16826
-9.409116,2.5211647,179.86296
-9.409116,2.5211647,178.86296
-10.585256,2.8363104,178.55768
-10.585256,2.8363104,177.55768
-10.585256,2.8363104,176.55768
-11.761395,3.1514559,176.25238
-11.761395,3.1514559,175.25238
-11.761395,3.1514559,174.25238
-12.937534,3.4666014,173.9471
-14.113673,3.781747,173.6418
-16.465952,4.4120383,174.03122
-17.642094,4.727184,173.72592
-19.99437,5.357475,174.11534
-21.170511,5.672621,173.81006
-22.34665,5.9877663,173.50476
-23.52279,6.3029118,173.19948
-23.52279,6.3029118,172.19948
-23.52279,6.3029118,171.19948
-23.52279,6.3029118,170.19948
-23.52279,6.3029118,169.19948
-22.34665,5.9877663,167.50476
-16.465952,4.4120383,163.03122
-16.465952,4.4120383,162.03122
-16.465952,4.4120383,161.03122
-15.289813,4.096893,159.33652
-15.289813,4.096893,158.33652
-16.465952,4.4120383,158.03122
-16.465952,4.4120383,157.03122
-16.465952,4.4120383,156.03122
-16.465952,4.4120383,155.03122
-16.465952,4.4120383,154.03122
-16.465952,4.4120383,153.03122
-15.289813,4.096893,151.33652
-15.289813,4.096893,150.33652
-16.465952,4.4120383,150.03122
-16.465952,4.4120383,149.03122
-15.289813,4.096893,147.33652
-14.113673,3.781747,145.6418
-14.113673,3.781747,144.6418
-14.113673,3.781747,143.6418
-12.937534,3.4666014,141.9471
-12.937534,3.4666014,140.9471
-12.937534,3.4666014,139.9471
-12.937534,3.4666014,138.9471
-14.113673,3.781747,138.6418
-14.113673,3.781747,137.6418
-14.113673,3.781747,136.6418
-14.113673,3.781747,135.6418
-14.113673,3.781747,134.6418
-14.113673,3.781747,133.6418
-14.113673,3.781747,132.6418
-14.113673,3.781747,131.6418
-14.113673,3.781747,130.6418
-14.113673,3.781747,129.6418
-14.113673,3.781747,128.6418
-14.113673,3.781747,127.6418
-12.937534,3.4666014,125.94709
-12.937534,3.4666014,124.94709
-14.113673,3.781747,124.6418
-12.937534,3.4666014,122.94709
-12.937534,3.4666014,121.94709
-12.937534,3.4666014,120.94709
-11.761395,3.1514559,119.25238
-10.585256,2.8363104,117.55767
-8.232976,2.2060192,115.16826
-8.232976,2.2060192,114.16826
-7.0568366,1.8908736,112.47355
-7.0568366,1.8908736,111.47355
-7.0568366,1.8908736,110.47355
-8.232976,2.2060192,110.16826
-9.409116,2.5211647,109.86296
-10.585256,2.8363104,109.55767
-11.761395,3.1514559,109.25238
-11.761395,3.1514559,108.25238
-12.937534,3.4666014,107.94709
-12.937534,3.4666014,106.94709
-12.937534,3.4666014,105.94709
-14.113673,3.781747,105.6418
-14.113673,3.781747,104.6418
-14.113673,3.781747,103.6418
-14.113673,3.781747,102.6418
-14.113673,3.781747,101.6418
-15.289813,4.096893,101.33651
-15.289813,4.096893,100.33651
-15.289813,4.096893,99.33651
-16.465952,4.4120383,99.03122
-16.465952,4.4120383,98.03122
-16.465952,4.4120383,97.03122
-16.465952,4.4120383,96.03122
-16.465952,4.4120383,95.03122
-16.465952,4.4120383,94.03122
-17.642094,4.727184,93.72593
-17.642094,4.727184,92.72593
-17.642094,4.727184,91.72593
-17.642094,4.727184,90.72593
-17.642094,4.727184,89.72593
-17.642094,4.727184,88.72593
-17.642094,4.727184,87.72593
-17.642094,4.727184,86.72593
-17.642094,4.727184,85.72593
-18.818232,5.0423293,85.42064
-18.818232,5.0423293,84.42064
-18.818232,5.0423293,83.42064
-18.818232,5.0423293,82.42064
-18.818232,5.0423293,81.42064
-18.818232,5.0423293,80.42064
-18.818232,5.0423293,79.42064
-27.051208,7.2483487,83.2836
-27.051208,7.2483487,82.2836
-29.403486,7.8786397,82.67302
-29.403486,7.8786397,81.67302
-30.579626,8.193786,81.36773
-30.579626,8.193786,80.36773
-32.931904,8.824077,80.75715
-32.931904,8.824077,79.75715
-32.931904,8.824077,78.75715
-32.931904,8.824077,77.75715
-35.284187,9.454368,78.14657
-35.284187,9.454368,77.14657
-35.284187,9.454368,76.14657
-36.460323,9.769513,75.84128
-49.397858,13.2361145,75.48308
-50.573997,13.55126,75.17779
-52.926277,14.181552,75.56721
-52.926277,14.181552,74.56721
-54.102417,14.496697,74.26192
-55.278557,14.811843,73.95663
-55.278557,14.811843,72.95663
-55.278557,14.811843,71.95663
-54.102417,14.496697,70.26192
-54.102417,14.496697,69.26192
-54.102417,14.496697,68.26192
-55.278557,14.811843,67.95663
-55.278557,14.811843,66.95663
-55.278557,14.811843,65.95663
-57.630833,15.442134,66.34604
-58.806973,15.757279,66.04076
-58.806973,15.757279,65.04076
-58.806973,15.757279,64.04076
-58.806973,15.757279,63.040752
-58.806973,15.757279,62.040752
-58.806973,15.757279,61.040752
-58.806973,15.757279,60.040752
-58.806973,15.757279,59.040752
-58.806973,15.757279,58.040752
-48.221718,12.920969,39.78837
-48.221718,12.920969,38.78837
-48.221718,12.920969,37.78837
-48.221718,12.920969,36.78837
-48.221718,12.920969,35.78837
-48.221718,12.920969,34.78837
-48.221718,12.920969,33.78837
-49.397858,13.2361145,33.483078
-49.397858,13.2361145,32.483078
-49.397858,13.2361145,31.48308
-49.397858,13.2361145,30.48308
-50.573997,13.55126,30.177788
-51.750137,13.8664055,29.872498
-51.750137,13.8664055,28.872498
-51.750137,13.8664055,27.872498
-51.750137,13.8664055,26.872498
-52.926277,14.181552,26.567207
-52.926277,14.181552,25.567207
-54.102417,14.496697,25.261917
-54.102417,14.496697,24.261917
-54.102417,14.496697,23.261917
-52.926277,14.181552,21.567207
-52.926277,14.181552,20.567207
-51.750137,13.8664055,18.872498
-49.397858,13.2361145,14.48308
-49.397858,13.2361145,13.48308
-49.397858,13.2361145,12.48308
-49.397858,13.2361145,11.48308
-49.397858,13.2361145,10.48308
-49.397858,13.2361145,9.48308
-49.397858,13.2361145,8.48308
-49.397858,13.2361145,7.48308
-49.397858,13.2361145,6.48308
-49.397858,13.2361145,5.48308
-49.397858,13.2361145,4.48308
-48.221718,12.920969,2.7883701
-48.221718,12.920969,1.7883701
-49.397858,13.2361145,1.4830799
-42.341022,11.345242,-4.685177
-42.341022,11.345242,-5.685177
-44.6933,11.975533,-5.2957573
-45.86944,12.290678,-5.6010475
-47.04558,12.6058235,-5.9063396
-51.750137,13.8664055,-4.1275024
-52.926277,14.181552,-4.4327927
-55.278557,14.811843,-4.043375
-55.278557,14.811843,-5.043375
-58.806973,15.757279,-3.9592476
-58.806973,15.757279,-4.9592476
-63.51153,17.017862,-3.1804085
-63.51153,17.017862,-4.1804085
-65.86381,17.648153,-3.7909927
-68.216095,18.278444,-3.4015732
-70.568375,18.908735,-3.0121536
-70.568375,18.908735,-4.0121536
-74.09679,19.854172,-2.9280243
-74.09679,19.854172,-3.9280243
-77.625206,20.799608,-2.8438988
-78.801346,21.114754,-3.149189
-82.329765,22.060192,-2.0650597
-82.329765,22.060192,-3.0650597
-85.858185,23.005629,-1.9809341
-87.034325,23.320774,-2.2862244
-91.73888,24.581356,-0.50738907
-91.73888,24.581356,-1.5073891
-92.91502,24.896503,-1.8126793
-92.91502,24.896503,-2.8126793
-98.795715,26.472229,-1.3391304
-102.324135,27.417665,-0.25500488
-102.324135,27.417665,-1.2550049
-105.852554,28.363104,-0.17087555
-105.852554,28.363104,-1.1708755
-110.55711,29.623686,0.60796356
-110.55711,29.623686,-0.39203644
// image  097
149.38641,-48.53861,282.6878
149.38641,-48.53861,281.6878
149.38641,-48.53861,280.6878
149.38641,-48.53861,279.6878
149.38641,-48.53861,278.6878
149.38641,-48.53861,275.6878
148.22836,-48.16234,275.3825
148.22836,-48.16234,274.3825
149.38641,-48.53861,272.6878
149.38641,-48.53861,271.6878
149.38641,-48.53861,270.6878
149.38641,-48.53861,269.6878
149.38641,-48.53861,268.6878
149.38641,-48.53861,267.6878
149.38641,-48.53861,266.6878
149.38641,-48.53861,265.6878
149.38641,-48.53861,264.6878
149.38641,-48.53861,263.6878
149.38641,-48.53861,262.6878
149.38641,-48.53861,261.6878
149.38641,-48.53861,260.6878
149.38641,-48.53861,259.6878
149.38641,-48.53861,258.6878
149.38641,-48.53861,257.6878
149.38641,-48.53861,230.6878
149.38641,-48.53861,229.6878
149.38641,-48.53861,228.6878
149.38641,-48.53861,227.6878
149.38641,-48.53861,226.6878
149.38641,-48.53861,225.6878
149.38641,-48.53861,224.6878
149.38641,-48.53861,223.6878
148.22836,-48.16234,223.3825
149.38641,-48.53861,211.6878
148.22836,-48.16234,211.3825
148.22836,-48.16234,210.3825
148.22836,-48.16234,209.3825
148.22836,-48.16234,208.3825
148.22836,-48.16234,207.3825
149.38641,-48.53861,205.6878
149.38641,-48.53861,204.6878
149.38641,-48.53861,203.6878
149.38641,-48.53861,202.6878
149.38641,-48.53861,201.6878
149.38641,-48.53861,200.6878
149.38641,-48.53861,199.6878
149.38641,-48.53861,198.6878
149.38641,-48.53861,197.6878
149.38641,-48.53861,196.6878
148.22836,-48.16234,196.3825
149.38641,-48.53861,194.6878
149.38641,-48.53861,193.6878
149.38641,-48.53861,192.6878
148.22836,-48.16234,192.3825
148.22836,-48.16234,191.3825
148.22836,-48.16234,190.3825
148.22836,-48.16234,189.3825
148.22836,-48.16234,188.3825
148.22836,-48.16234,187.3825
148.22836,-48.16234,186.3825
148.22836,-48.16234,185.3825
148.22836,-48.16234,184.3825
148.22836,-48.16234,183.3825
148.22836,-48.16234,182.3825
148.22836,-48.16234,181.3825
148.22836,-48.16234,180.3825
148.22836,-48.16234,179.3825
148.22836,-48.16234,178.3825
148.22836,-48.16234,177.3825
148.22836,-48.16234,176.3825
148.22836,-48.16234,175.3825
148.22836,-48.16234,174.3825
148.22836,-48.16234,173.3825
148.22836,-48.16234,172.3825
148.22836,-48.16234,171.3825
148.22836,-48.16234,170.3825
148.22836,-48.16234,169.3825
148.22836,-48.16234,168.3825
148.22836,-48.16234,167.3825
148.22836,-48.16234,166.3825
148.22836,-48.16234,165.3825
148.22836,-48.16234,164.3825
148.22836,-48.16234,163.3825
148.22836,-48.16234,162.3825
148.22836,-48.16234,161.3825
148.22836,-48.16234,160.3825
148.22836,-48.16234,159.3825
148.22836,-48.16234,158.3825
148.22836,-48.16234,157.3825
148.22836,-48.16234,156.3825
148.22836,-48.16234,155.3825
147.07034,-47.78607,147.07721
147.07034,-47.78607,146.07721
147.07034,-47.78607,145.07721
147.07034,-47.78607,144.07721
147.07034,-47.78607,143.07721
147.07034,-47.78607,142.07721
147.07034,-47.78607,141.07721
147.07034,-47.78607,140.07721
147.07034,-47.78607,139.07721
147.07034,-47.78607,138.07721
147.07034,-47.78607,137.07721
147.07034,-47.78607,136.07721
147.07034,-47.78607,135.07721
147.07034,-47.78607,134.07721
1.1580341,-0.37626827,192.61058
-1.1580341,0.37626827,193.0
-1.1580341,0.37626827,192.0
-2.3160682,0.75253654,191.6947
-2.3160682,0.75253654,190.6947
-3.4741025,1.1288048,190.38942
-4.6321363,1.5050731,190.08412
-4.6321363,1.5050731,189.08412
-4.6321363,1.5050731,188.08412
-5.7901707,1.8813415,187.77884
-6.948205,2.2576096,187.47354
-6.948205,2.2576096,186.47354
-6.948205,2.2576096,185.47354
-6.948205,2.2576096,184.47354
-6.948205,2.2576096,183.47354
-6.948205,2.2576096,182.47354
-8.106238,2.6338778,182.16826
-8.106238,2.6338778,181.16826
-8.106238,2.6338778,180.16826
-8.106238,2.6338778,179.16826
-9.264273,3.0101461,178.86296
-10.422307,3.3864145,178.55768
-10.422307,3.3864145,177.55768
-10.422307,3.3864145,176.55768
-11.580341,3.762683,176.25238
-11.580341,3.762683,175.25238
-11.580341,3.762683,174.25238
-13.89641,4.515219,174.6418
-16.212477,5.2677555,175.03122
-16.212477,5.2677555,174.03122
-17.370512,5.6440244,173.72592
-18.528545,6.0202923,173.42064
-20.844614,6.772829,173.81006
-22.00265,7.149097,173.50476
-23.160683,7.525366,173.19948
-23.160683,7.525366,172.19948
-23.160683,7.525366,171.19948
-23.160683,7.525366,170.19948
-23.160683,7.525366,169.19948
-16.212477,5.2677555,164.03122
-16.212477,5.2677555,163.03122
-16.212477,5.2677555,162.03122
-16.212477,5.2677555,161.03122
-15.054444,4.8914876,159.33652
-15.054444,4.8914876,158.33652
-16.212477,5.2677555,158.03122
-16.212477,5.2677555,157.03122
-16.212477,5.2677555,156.03122
-16.212477,5.2677555,155.03122
-16.212477,5.2677555,154.03122
-16.212477,5.2677555,153.03122
-17.370512,5.6440244,152.72592
-15.054444,4.8914876,150.33652
-16.212477,5.2677555,150.03122
-13.89641,4.515219,147.6418
-13.89641,4.515219,146.6418
-13.89641,4.515219,145.6418
-12.738376,4.138951,143.9471
-12.738376,4.138951,142.9471
-12.738376,4.138951,141.9471
-12.738376,4.138951,140.9471
-12.738376,4.138951,139.9471
-12.738376,4.138951,138.9471
-12.738376,4.138951,137.9471
-13.89641,4.515219,137.6418
-13.89641,4.515219,136.6418
-13.89641,4.515219,135.6418
-13.89641,4.515219,134.6418
-13.89641,4.515219,133.6418
-13.89641,4.515219,132.6418
-13.89641,4.515219,131.6418
-13.89641,4.515219,130.6418
-13.89641,4.515219,129.6418
-13.89641,4.515219,128.6418
-13.89641,4.515219,127.6418
-13.89641,4.515219,126.6418
-12.738376,4.138951,124.94709
-13.89641,4.515219,124.6418
-13.89641,4.515219,123.6418
-12.738376,4.138951,121.94709
-12.738376,4.138951,120.94709
-12.738376,4.138951,119.94709
-10.422307,3.3864145,117.55767
-10.422307,3.3864145,116.55767
-8.106238,2.6338778,114.16826
-6.948205,2.2576096,112.47355
-6.948205,2.2576096,111.47355
-6.948205,2.2576096,110.47355
-8.106238,2.6338778,110.16826
-9.264273,3.0101461,109.86296
-10.422307,3.3864145,109.55767
-11.580341,3.762683,109.25238
-11.580341,3.762683,108.25238
-12.738376,4.138951,107.94709
-12.738376,4.138951,106.94709
-12.738376,4.138951,105.94709
-13.89641,4.515219,105.6418
-13.89641,4.515219,104.6418
-13.89641,4.515219,103.6418
-13.89641,4.515219,102.6418
-15.054444,4.8914876,102.33651
-15.054444,4.8914876,101.33651
-15.054444,4.8914876,100.33651
-15.054444,4.8914876,99.33651
-15.054444,4.8914876,98.33651
-16.212477,5.2677555,98.03122
-16.212477,5.2677555,97.03122
-16.212477,5.2677555,96.03122
-16.212477,5.2677555,95.03122
-16.212477,5.2677555,94.03122
-17.370512,5.6440244,93.72593
-17.370512,5.6440244,92.72593
-17.370512,5.6440244,91.72593
-17.370512,5.6440244,90.72593
-17.370512,5.6440244,89.72593
-18.528545,6.0202923,89.42064
-18.528545,6.0202923,88.42064
-18.528545,6.0202923,87.42064
-18.528545,6.0202923,86.42064
-18.528545,6.0202923,85.42064
-18.528545,6.0202923,84.42064
-18.528545,6.0202923,83.42064
-18.528545,6.0202923,82.42064
-18.528545,6.0202923,81.42064
-18.528545,6.0202923,80.42064
-17.370512,5.6440244,78.72593
-25.476751,8.277902,82.5889
-26.634787,8.65417,82.2836
-26.634787,8.65417,81.2836
-28.950853,9.406707,81.67302
-28.950853,9.406707,80.67302
-30.108889,9.782975,80.36773
-31.266922,10.159244,80.06244
-31.266922,10.159244,79.06244
-32.424953,10.535511,78.75715
-32.424953,10.535511,77.75715
-33.582993,10.91178,77.45186
-34.741024,11.288049,77.14657
-34.741024,11.288049,76.14657
-34.741024,11.288049,75.14657
-34.741024,11.288049,74.14657
-34.741024,11.288049,73.14657
-35.89906,11.664316,72.84128
-35.89906,11.664316,71.84128
-35.89906,11.664316,70.84128
-35.89906,11.664316,69.84128
-49.795467,16.179535,73.17779
-50.953503,16.555803,72.8725
-52.111538,16.932074,72.56721
-53.269573,17.30834,72.26192
-53.269573,17.30834,71.26192
-53.269573,17.30834,70.26192
-53.269573,17.30834,69.26192
-53.269573,17.30834,68.26192
-53.269573,17.30834,67.26192
-53.269573,17.30834,66.26192
-55.58564,18.060877,66.65134
-55.58564,18.060877,65.65134
-55.58564,18.060877,64.65134
-55.58564,18.060877,63.651337
-55.58564,18.060877,62.651337
-46.321365,15.050732,39.09366
-46.321365,15.050732,38.09366
-46.321365,15.050732,37.09366
-46.321365,15.050732,36.09366
-46.321365,15.050732,35.09366
-46.321365,15.050732,34.09366
-46.321365,15.050732,33.09366
-47.4794,15.426999,32.78837
-47.4794,15.426999,31.78837
-47.4794,15.426999,30.78837
-47.4794,15.426999,29.78837
-47.4794,15.426999,28.78837
-47.4794,15.426999,27.78837
-48.637436,15.8032675,27.48308
-48.637436,15.8032675,26.48308
-49.795467,16.179535,26.177788
-49.795467,16.179535,25.177788
-50.953503,16.555803,24.872498
-50.953503,16.555803,23.872498
-50.953503,16.555803,22.872498
-50.953503,16.555803,21.872498
-50.953503,16.555803,20.872498
-50.953503,16.555803,19.872498
-50.953503,16.555803,18.872498
-50.953503,16.555803,17.872498
-49.795467,16.179535,16.177788
-49.795467,16.179535,15.177788
-49.795467,16.179535,14.177788
-50.953503,16.555803,13.872498
-50.953503,16.555803,12.872498
-50.953503,16.555803,11.872498
-50.953503,16.555803,10.872498
-50.953503,16.555803,9.872498
-52.111538,16.932074,9.567207
-52.111538,16.932074,8.567207
-52.111538,16.932074,7.5672073
-52.111538,16.932074,6.5672073
-52.111538,16.932074,5.5672073
-50.953503,16.555803,3.8724976
-50.953503,16.555803,2.8724976
-50.953503,16.555803,1.8724976
-49.795467,16.179535,0.17778778
-49.795467,16.179535,-0.8222122
-46.321365,15.050732,-3.9063396
-46.321365,15.050732,-4.9063396
-46.321365,15.050732,-5.9063396
-49.795467,16.179535,-4.822212
-50.953503,16.555803,-5.1275024
-54.427605,17.684608,-4.043375
-54.427605,17.684608,-5.043375
-57.901707,18.813414,-3.9592476
-57.901707,18.813414,-4.9592476
-62.533844,20.318487,-3.1804085
-62.533844,20.318487,-4.1804085
-64.84991,21.071022,-3.7909927
-67.165985,21.82356,-3.4015732
-69.48205,22.576097,-3.0121536
-69.48205,22.576097,-4.0121536
-72.956154,23.7049,-2.9280243
-72.956154,23.7049,-3.9280243
-77.58829,25.209974,-2.149189
-77.58829,25.209974,-3.149189
-81.06239,26.33878,-2.0650597
-85.69453,27.843853,-1.2862244
-85.69453,27.843853,-2.2862244
-90.32666,29.348925,-0.50738907
-90.32666,29.348925,-1.5073891
-91.4847,29.725195,-1.8126793
-97.27487,31.606535,-1.3391304
-100.74897,32.73534,-0.25500488
-100.74897,32.73534,-1.2550049
-104.223076,33.864147,-0.17087555
-104.223076,33.864147,-1.1708755
-108.85521,35.369217,0.60796356
// image  098
146.64136,-56.290398,281.6878
146.64136,-56.290398,280.6878
146.64136,-56.290398,279.6878
146.64136,-56.290398,278.6878
146.64136,-56.290398,275.6878
145.5046,-55.854034,275.3825
145.5046,-55.854034,274.3825
146.64136,-56.290398,272.6878
146.64136,-56.290398,271.6878
146.64136,-56.290398,270.6878
146.64136,-56.290398,269.6878
146.64136,-56.290398,268.6878
146.64136,-56.290398,267.6878
146.64136,-56.290398,266.6878
146.64136,-56.290398,265.6878
146.64136,-56.290398,264.6878
146.64136,-56.290398,263.6878
146.64136,-56.290398,262.6878
146.64136,-56.290398,261.6878
146.64136,-56.290398,260.6878
146.64136,-56.290398,259.6878
146.64136,-56.290398,258.6878
146.64136,-56.290398,257.6878
146.64136,-56.290398,229.6878
146.64136,-56.290398,228.6878
146.64136,-56.290398,227.6878
146.64136,-56.290398,226.6878
146.64136,-56.290398,225.6878
146.64136,-56.290398,224.6878
146.64136,-56.290398,223.6878
146.64136,-56.290398,211.6878
145.5046,-55.854034,211.3825
145.5046,-55.854034,210.3825
145.5046,-55.854034,209.3825
145.5046,-55.854034,208.3825
145.5046,-55.854034,207.3825
146.64136,-56.290398,205.6878
146.64136,-56.290398,204.6878
146.64136,-56.290398,203.6878
146.64136,-56.290398,202.6878
146.64136,-56.290398,201.6878
146.64136,-56.290398,200.6878
145.5046,-55.854034,200.3825
145.5046,-55.854034,199.3825
146.64136,-56.290398,197.6878
146.64136,-56.290398,196.6878
146.64136,-56.290398,195.6878
145.5046,-55.854034,195.3825
146.64136,-56.290398,193.6878
145.5046,-55.854034,193.3825
145.5046,-55.854034,192.3825
145.5046,-55.854034,191.3825
145.5046,-55.854034,190.3825
145.5046,-55.854034,189.3825
145.5046,-55.854034,188.3825
145.5046,-55.854034,187.3825
145.5046,-55.854034,186.3825
145.5046,-55.854034,185.3825
145.5046,-55.854034,184.3825
145.5046,-55.854034,183.3825
145.5046,-55.854034,182.3825
145.5046,-55.854034,181.3825
145.5046,-55.854034,180.3825
145.5046,-55.854034,179.3825
145.5046,-55.854034,178.3825
145.5046,-55.854034,177.3825
145.5046,-55.854034,176.3825
145.5046,-55.854034,175.3825
145.5046,-55.854034,174.3825
145.5046,-55.854034,173.3825
145.5046,-55.854034,172.3825
145.5046,-55.854034,171.3825
145.5046,-55.854034,170.3825
145.5046,-55.854034,169.3825
145.5046,-55.854034,168.3825
145.5046,-55.854034,167.3825
145.5046,-55.854034,166.3825
145.5046,-55.854034,165.3825
145.5046,-55.854034,164.3825
145.5046,-55.854034,163.3825
145.5046,-55.854034,162.3825
145.5046,-55.854034,161.3825
145.5046,-55.854034,160.3825
145.5046,-55.854034,159.3825
145.5046,-55.854034,158.3825
145.5046,-55.854034,157.3825
145.5046,-55.854034,156.3825
145.5046,-55.854034,155.3825
144.36786,-55.41768,148.07721
144.36786,-55.41768,147.07721
144.36786,-55.41768,146.07721
144.36786,-55.41768,145.07721
144.36786,-55.41768,144.07721
144.36786,-55.41768,143.07721
144.36786,-55.41768,142.07721
144.36786,-55.41768,141.07721
144.36786,-55.41768,140.07721
144.36786,-55.41768,139.07721
144.36786,-55.41768,138.07721
144.36786,-55.41768,137.07721
144.36786,-55.41768,136.07721
144.36786,-55.41768,135.07721
144.36786,-55.41768,134.07721
1.1367546,-0.43635964,192.61058
-1.1367546,0.43635964,193.0
-1.1367546,0.43635964,192.0
-2.2735093,0.8727193,191.6947
-2.2735093,0.8727193,190.6947
-3.410264,1.3090789,190.38942
-3.410264,1.3090789,189.38942
-4.5470185,1.7454386,189.08412
-4.5470185,1.7454386,188.08412
-5.6837735,2.1817982,187.77884
-6.820528,2.6181579,187.47354
-6.820528,2.6181579,186.47354
-6.820528,2.6181579,185.47354
-6.820528,2.6181579,184.47354
-6.820528,2.6181579,183.47354
-6.820528,2.6181579,182.47354
-7.9572825,3.0545175,182.16826
-7.9572825,3.0545175,181.16826
-7.9572825,3.0545175,180.16826
-7.9572825,3.0545175,179.16826
-9.094037,3.4908772,178.86296
-9.094037,3.4908772,177.86296
-10.230792,3.9272368,177.55768
-10.230792,3.9272368,176.55768
-10.230792,3.9272368,175.55768
-11.367547,4.3635964,175.25238
-11.367547,4.3635964,174.25238
-13.641056,5.2363157,174.6418
-13.641056,5.2363157,173.6418
-15.914565,6.109035,174.03122
-18.188074,6.9817543,174.42064
-19.32483,7.4181137,174.11534
-20.461584,7.8544736,173.81006
-21.59834,8.290833,173.50476
-21.59834,8.290833,172.50476
-22.735094,8.727193,172.19948
-22.735094,8.727193,171.19948
-21.59834,8.290833,169.50476
-15.914565,6.109035,164.03122
-15.914565,6.109035,163.03122
-15.914565,6.109035,162.03122
-14.777811,5.6726756,160.33652
-14.777811,5.6726756,159.33652
-14.777811,5.6726756,158.33652
-15.914565,6.109035,158.03122
-15.914565,6.109035,157.03122
-15.914565,6.109035,156.03122
-15.914565,6.109035,155.03122
-15.914565,6.109035,154.03122
-14.777811,5.6726756,152.33652
-14.777811,5.6726756,151.33652
-14.777811,5.6726756,150.33652
-15.914565,6.109035,150.03122
-13.641056,5.2363157,147.6418
-13.641056,5.2363157,146.6418
-12.504301,4.799956,144.9471
-12.504301,4.799956,143.9471
-12.504301,4.799956,142.9471
-12.504301,4.799956,141.9471
-13.641056,5.2363157,141.6418
-12.504301,4.799956,139.9471
-12.504301,4.799956,138.9471
-12.504301,4.799956,137.9471
-13.641056,5.2363157,137.6418
-13.641056,5.2363157,136.6418
-13.641056,5.2363157,135.6418
-13.641056,5.2363157,134.6418
-13.641056,5.2363157,133.6418
-13.641056,5.2363157,132.6418
-13.641056,5.2363157,131.6418
-13.641056,5.2363157,130.6418
-13.641056,5.2363157,129.6418
-13.641056,5.2363157,128.6418
-13.641056,5.2363157,127.6418
-13.641056,5.2363157,126.6418
-13.641056,5.2363157,125.6418
-13.641056,5.2363157,124.6418
-13.641056,5.2363157,123.6418
-12.504301,4.799956,121.94709
-12.504301,4.799956,120.94709
-12.504301,4.799956,119.94709
-11.367547,4.3635964,118.25238
-10.230792,3.9272368,116.55767
-7.9572825,3.0545175,114.16826
-7.9572825,3.0545175,113.16826
-6.820528,2.6181579,111.47355
-6.820528,2.6181579,110.47355
-6.820528,2.6181579,109.47355
-7.9572825,3.0545175,109.16826
-10.230792,3.9272368,109.55767
-11.367547,4.3635964,109.25238
-11.367547,4.3635964,108.25238
-12.504301,4.799956,107.94709
-12.504301,4.799956,106.94709
-12.504301,4.799956,105.94709
-13.641056,5.2363157,105.6418
-13.641056,5.2363157,104.6418
-13.641056,5.2363157,103.6418
-13.641056,5.2363157,102.6418
-14.777811,5.6726756,102.33651
-14.777811,5.6726756,101.33651
