// image  001
190.63376,73.17751,225.6878
190.63376,73.17751,224.6878
190.63376,73.17751,223.6878
190.63376,73.17751,211.6878
189.15598,72.610245,211.3825
189.15598,72.610245,210.3825
189.15598,72.610245,209.3825
189.15598,72.610245,208.3825
189.15598,72.610245,207.3825
190.63376,73.17751,205.6878
190.63376,73.17751,204.6878
190.63376,73.17751,203.6878
190.63376,73.17751,202.6878
190.63376,73.17751,201.6878
190.63376,73.17751,200.6878
189.15598,72.610245,200.3825
189.15598,72.610245,199.3825
190.63376,73.17751,197.6878
190.63376,73.17751,196.6878
190.63376,73.17751,195.6878
189.15598,72.610245,195.3825
190.63376,73.17751,193.6878
189.15598,72.610245,193.3825
189.15598,72.610245,192.3825
189.15598,72.610245,191.3825
189.15598,72.610245,190.3825
189.15598,72.610245,189.3825
189.15598,72.610245,188.3825
189.15598,72.610245,187.3825
189.15598,72.610245,186.3825
189.15598,72.610245,185.3825
189.15598,72.610245,184.3825
189.15598,72.610245,183.3825
189.15598,72.610245,182.3825
189.15598,72.610245,181.3825
189.15598,72.610245,180.3825
189.15598,72.610245,179.3825
189.15598,72.610245,178.3825
189.15598,72.610245,177.3825
189.15598,72.610245,176.3825
189.15598,72.610245,175.3825
189.15598,72.610245,174.3825
189.15598,72.610245,173.3825
189.15598,72.610245,172.3825
189.15598,72.610245,171.3825
189.15598,72.610245,170.3825
189.15598,72.610245,169.3825
189.15598,72.610245,168.3825
189.15598,72.610245,167.3825
189.15598,72.610245,166.3825
189.15598,72.610245,165.3825
189.15598,72.610245,164.3825
189.15598,72.610245,163.3825
189.15598,72.610245,162.3825
189.15598,72.610245,161.3825
189.15598,72.610245,160.3825
189.15598,72.610245,159.3825
189.15598,72.610245,158.3825
189.15598,72.610245,157.3825
189.15598,72.610245,156.3825
189.15598,72.610245,155.3825
187.67818,72.04298,148.07721
187.67818,72.04298,147.07721
187.67818,72.04298,146.07721
187.67818,72.04298,145.07721
187.67818,72.04298,144.07721
187.67818,72.04298,143.07721
187.67818,72.04298,142.07721
187.67818,72.04298,141.07721
187.67818,72.04298,140.07721
187.67818,72.04298,139.07721
187.67818,72.04298,138.07721
187.67818,72.04298,137.07721
187.67818,72.04298,136.07721
187.67818,72.04298,135.07721
187.67818,72.04298,134.07721
1.477781,0.56726754,192.61058
-1.477781,-0.56726754,193.0
-1.477781,-0.56726754,192.0
-2.955562,-1.1345351,191.6947
-2.955562,-1.1345351,190.6947
-4.433343,-1.7018025,190.38942
-4.433343,-1.7018025,189.38942
-5.911124,-2.2690701,189.08412
-5.911124,-2.2690701,188.08412
-7.3889055,-2.8363376,187.77884
-8.866686,-3.403605,187.47354
-8.866686,-3.403605,186.47354
-8.866686,-3.403605,185.47354
-8.866686,-3.403605,184.47354
-8.866686,-3.403605,183.47354
-8.866686,-3.403605,182.47354
-10.344467,-3.9708726,182.16826
-10.344467,-3.9708726,181.16826
-10.344467,-3.9708726,180.16826
-10.344467,-3.9708726,179.16826
-11.822248,-4.5381403,178.86296
-11.822248,-4.5381403,177.86296
-13.30003,-5.1054077,177.55768
-13.30003,-5.1054077,176.55768
-13.30003,-5.1054077,175.55768
-14.777811,-5.672675,175.25238
-14.777811,-5.672675,174.25238
-17.733372,-6.80721,174.6418
-17.733372,-6.80721,173.6418
-20.688934,-7.9417453,174.03122
-23.644497,-9.076281,174.42064
-25.122276,-9.643547,174.11534
-26.60006,-10.210815,173.81006
-28.077839,-10.778083,173.50476
-28.077839,-10.778083,172.50476
-29.555622,-11.34535,172.19948
-29.555622,-11.34535,171.19948
-28.077839,-10.778083,169.50476
-20.688934,-7.9417453,164.03122
-20.688934,-7.9417453,163.03122
-20.688934,-7.9417453,162.03122
-19.211153,-7.374478,160.33652
-19.211153,-7.374478,159.33652
-19.211153,-7.374478,158.33652
-20.688934,-7.9417453,158.03122
-20.688934,-7.9417453,157.03122
-20.688934,-7.9417453,156.03122
-20.688934,-7.9417453,155.03122
-20.688934,-7.9417453,154.03122
-19.211153,-7.374478,152.33652
-19.211153,-7.374478,151.33652
-19.211153,-7.374478,150.33652
-20.688934,-7.9417453,150.03122
-17.733372,-6.80721,147.6418
-17.733372,-6.80721,146.6418
-16.25559,-6.2399426,144.9471
-16.25559,-6.2399426,143.9471
-16.25559,-6.2399426,142.9471
-16.25559,-6.2399426,141.9471
-17.733372,-6.80721,141.6418
-16.25559,-6.2399426,139.9471
-16.25559,-6.2399426,138.9471
-16.25559,-6.2399426,137.9471
-17.733372,-6.80721,137.6418
-17.733372,-6.80721,136.6418
-17.733372,-6.80721,135.6418
-17.733372,-6.80721,134.6418
-17.733372,-6.80721,133.6418
-17.733372,-6.80721,132.6418
-17.733372,-6.80721,131.6418
-17.733372,-6.80721,130.6418
-17.733372,-6.80721,129.6418
-17.733372,-6.80721,128.6418
-17.733372,-6.80721,127.6418
-17.733372,-6.80721,126.6418
-17.733372,-6.80721,125.6418
-17.733372,-6.80721,124.6418
-17.733372,-6.80721,123.6418
-16.25559,-6.2399426,121.94709
-16.25559,-6.2399426,120.94709
-16.25559,-6.2399426,119.94709
-14.777811,-5.672675,118.25238
-13.30003,-5.1054077,116.55767
-10.344467,-3.9708726,114.16826
-10.344467,-3.9708726,113.16826
-8.866686,-3.403605,111.47355
-8.866686,-3.403605,110.47355
-8.866686,-3.403605,109.47355
-10.344467,-3.9708726,109.16826
-13.30003,-5.1054077,109.55767
-14.777811,-5.672675,109.25238
-14.777811,-5.672675,108.25238
-16.25559,-6.2399426,107.94709
-16.25559,-6.2399426,106.94709
-16.25559,-6.2399426,105.94709
-17.733372,-6.80721,105.6418
-17.733372,-6.80721,104.6418
-17.733372,-6.80721,103.6418
-17.733372,-6.80721,102.6418
-19.211153,-7.374478,102.33651
-19.211153,-7.374478,101.33651
-19.211153,-7.374478,100.33651
-19.211153,-7.374478,99.33651
-19.211153,-7.374478,98.33651
-19.211153,-7.374478,97.33651
-20.688934,-7.9417453,97.03122
-20.688934,-7.9417453,96.03122
-20.688934,-7.9417453,95.03122
-20.688934,-7.9417453,94.03122
-20.688934,-7.9417453,93.03122
-22.166716,-8.509013,92.72593
-22.166716,-8.509013,91.72593
-22.166716,-8.509013,90.72593
-22.166716,-8.509013,89.72593
-22.166716,-8.509013,88.72593
-22.166716,-8.509013,87.72593
-23.644497,-9.076281,87.42064
-23.644497,-9.076281,86.42064
-23.644497,-9.076281,85.42064
-23.644497,-9.076281,84.42064
-23.644497,-9.076281,83.42064
-22.166716,-8.509013,81.72593
-22.166716,-8.509013,80.72593
-22.166716,-8.509013,79.72593
-22.166716,-8.509013,78.72593
-23.644497,-9.076281,78.42064
-32.51118,-12.479885,81.5889
-33.988964,-13.047153,81.2836
-33.988964,-13.047153,80.2836
-36.944527,-14.181687,80.67302
-38.422306,-14.748956,80.36773
-38.422306,-14.748956,79.36773
-39.90009,-15.316223,79.06244
-41.37787,-15.883491,78.75715
-41.37787,-15.883491,77.75715
-42.855648,-16.450758,77.45186
-42.855648,-16.450758,76.45186
-44.33343,-17.018026,76.14657
-44.33343,-17.018026,75.14657
-44.33343,-17.018026,74.14657
-44.33343,-17.018026,73.14657
-44.33343,-17.018026,72.14657
-44.33343,-17.018026,71.14657
-44.33343,-17.018026,70.14657
-44.33343,-17.018026,69.14657
-65.02236,-24.95977,69.8725
-65.02236,-24.95977,68.8725
-65.02236,-24.95977,67.8725
-66.500145,-25.527039,67.56721
-66.500145,-25.527039,66.56721
-66.500145,-25.527039,65.56721
-67.97793,-26.094307,65.26192
-67.97793,-26.094307,64.26192
-67.97793,-26.094307,63.261917
-67.97793,-26.094307,62.261917
-67.97793,-26.094307,61.261917
-67.97793,-26.094307,60.261917
-67.97793,-26.094307,59.261917
-67.97793,-26.094307,58.261917
-67.97793,-26.094307,57.261917
-67.97793,-26.094307,56.261917
-60.589024,-23.257967,42.78837
-60.589024,-23.257967,41.78837
-59.111244,-22.6907,40.09366
-59.111244,-22.6907,39.09366
-59.111244,-22.6907,38.09366
-57.633457,-22.123434,36.398952
-57.633457,-22.123434,35.398952
-57.633457,-22.123434,34.398952
-57.633457,-22.123434,33.398952
-57.633457,-22.123434,32.398952
-57.633457,-22.123434,31.398952
-57.633457,-22.123434,30.398952
-57.633457,-22.123434,29.398952
-57.633457,-22.123434,28.398952
-57.633457,-22.123434,27.398952
-57.633457,-22.123434,26.398952
-59.111244,-22.6907,26.09366
-62.066803,-23.825235,26.48308
-62.066803,-23.825235,25.48308
-62.066803,-23.825235,24.48308
-63.544582,-24.392502,24.177788
-63.544582,-24.392502,23.177788
-65.02236,-24.95977,22.872498
-65.02236,-24.95977,21.872498
-65.02236,-24.95977,20.872498
-65.02236,-24.95977,19.872498
-63.544582,-24.392502,18.177788
-63.544582,-24.392502,17.177788
-63.544582,-24.392502,16.177788
-65.02236,-24.95977,15.872498
-65.02236,-24.95977,14.872498
-66.500145,-25.527039,14.567207
-67.97793,-26.094307,14.261917
-67.97793,-26.094307,13.261917
-67.97793,-26.094307,12.261917
-67.97793,-26.094307,11.261917
-69.45571,-26.661573,10.956625
-69.45571,-26.661573,9.956625
-69.45571,-26.661573,8.956625
-69.45571,-26.661573,7.956625
-69.45571,-26.661573,6.956625
-67.97793,-26.094307,5.261917
-60.589024,-23.257967,-4.21163
-62.066803,-23.825235,-4.51692
-65.02236,-24.95977,-4.1275024
-65.02236,-24.95977,-5.1275024
-69.45571,-26.661573,-4.043375
-69.45571,-26.661573,-5.043375
-73.88905,-28.363375,-3.9592476
-73.88905,-28.363375,-4.9592476
-79.80018,-30.632446,-3.1804085
-79.80018,-30.632446,-4.1804085
-82.75574,-31.766981,-3.7909927
-85.711296,-32.901516,-3.4015732
-87.18908,-33.468784,-3.7068634
-88.66686,-34.036053,-4.0121536
-93.100204,-35.737854,-2.9280243
-93.100204,-35.737854,-3.9280243
-97.53355,-37.439655,-2.8438988
-99.01133,-38.006924,-3.149189
-103.44468,-39.708725,-2.0650597
-103.44468,-39.708725,-3.0650597
-107.87801,-41.41053,-1.9809341
-109.3558,-41.9778,-2.2862244
-115.266914,-44.24687,-1.5073891
-116.744705,-44.814133,-1.8126793
-124.133606,-47.65047,-1.3391304
-133.00029,-51.054077,-0.17087555
-133.00029,-51.054077,-1.1708755
// image  099
186.5427,83.05417,281.6878
186.5427,83.05417,280.6878
186.5427,83.05417,279.6878
186.5427,83.05417,278.6878
186.5427,83.05417,275.6878
185.09663,82.41034,275.3825
185.09663,82.41034,274.3825
186.5427,83.05417,272.6878
186.5427,83.05417,271.6878
186.5427,83.05417,270.6878
186.5427,83.05417,269.6878
186.5427,83.05417,268.6878
186.5427,83.05417,267.6878
186.5427,83.05417,266.6878
186.5427,83.05417,265.6878
186.5427,83.05417,264.6878
186.5427,83.05417,263.6878
186.5427,83.05417,262.6878
186.5427,83.05417,261.6878
186.5427,83.05417,260.6878
186.5427,83.05417,259.6878
186.5427,83.05417,258.6878
186.5427,83.05417,257.6878
186.5427,83.05417,230.6878
186.5427,83.05417,229.6878
186.5427,83.05417,228.6878
186.5427,83.05417,227.6878
186.5427,83.05417,226.6878
186.5427,83.05417,225.6878
186.5427,83.05417,224.6878
186.5427,83.05417,223.6878
185.09663,82.41034,223.3825
186.5427,83.05417,211.6878
185.09663,82.41034,211.3825
185.09663,82.41034,210.3825
185.09663,82.41034,209.3825
185.09663,82.41034,208.3825
186.5427,83.05417,206.6878
186.5427,83.05417,205.6878
186.5427,83.05417,204.6878
186.5427,83.05417,203.6878
186.5427,83.05417,202.6878
186.5427,83.05417,201.6878
186.5427,83.05417,200.6878
186.5427,83.05417,199.6878
186.5427,83.05417,198.6878
186.5427,83.05417,197.6878
186.5427,83.05417,196.6878
186.5427,83.05417,195.6878
185.09663,82.41034,195.3825
185.09663,82.41034,194.3825
185.09663,82.41034,193.3825
185.09663,82.41034,192.3825
185.09663,82.41034,191.3825
185.09663,82.41034,190.3825
185.09663,82.41034,189.3825
185.09663,82.41034,188.3825
185.09663,82.41034,187.3825
185.09663,82.41034,186.3825
185.09663,82.41034,185.3825
185.09663,82.41034,184.3825
185.09663,82.41034,183.3825
185.09663,82.41034,182.3825
185.09663,82.41034,181.3825
185.09663,82.41034,180.3825
185.09663,82.41034,179.3825
185.09663,82.41034,178.3825
185.09663,82.41034,177.3825
185.09663,82.41034,176.3825
185.09663,82.41034,175.3825
185.09663,82.41034,174.3825
185.09663,82.41034,173.3825
185.09663,82.41034,172.3825
185.09663,82.41034,171.3825
185.09663,82.41034,170.3825
185.09663,82.41034,169.3825
185.09663,82.41034,168.3825
185.09663,82.41034,167.3825
185.09663,82.41034,166.3825
185.09663,82.41034,165.3825
185.09663,82.41034,164.3825
185.09663,82.41034,163.3825
185.09663,82.41034,162.3825
185.09663,82.41034,161.3825
185.09663,82.41034,160.3825
185.09663,82.41034,159.3825
185.09663,82.41034,158.3825
185.09663,82.41034,157.3825
185.09663,82.41034,156.3825
185.09663,82.41034,155.3825
183.65056,81.76651,148.07721
183.65056,81.76651,147.07721
183.65056,81.76651,146.07721
183.65056,81.76651,145.07721
183.65056,81.76651,144.07721
183.65056,81.76651,143.07721
183.65056,81.76651,142.07721
183.65056,81.76651,141.07721
183.65056,81.76651,140.07721
183.65056,81.76651,139.07721
183.65056,81.76651,138.07721
183.65056,81.76651,137.07721
183.65056,81.76651,136.07721
183.65056,81.76651,135.07721
183.65056,81.76651,134.07721
1.4460675,0.6438308,192.61058
-1.4460675,-0.6438308,193.0
-1.4460675,-0.6438308,192.0
-2.892135,-1.2876616,191.6947
-2.892135,-1.2876616,190.6947
-4.338202,-1.9314922,190.38942
-4.338202,-1.9314922,189.38942
-5.78427,-2.575323,189.08412
-5.78427,-2.575323,188.08412
-5.78427,-2.575323,187.08412
-7.2303376,-3.219154,186.77884
-8.676404,-3.8629844,186.47354
-8.676404,-3.8629844,185.47354
-8.676404,-3.8629844,184.47354
-8.676404,-3.8629844,183.47354
-8.676404,-3.8629844,182.47354
-8.676404,-3.8629844,181.47354
-10.122472,-4.5068154,181.16826
-10.122472,-4.5068154,180.16826
-10.122472,-4.5068154,179.16826
-11.56854,-5.150646,178.86296
-10.122472,-4.5068154,177.16826
-13.014607,-5.794477,177.55768
-13.014607,-5.794477,176.55768
-14.460675,-6.438308,176.25238
-14.460675,-6.438308,175.25238
-14.460675,-6.438308,174.25238
-17.352808,-7.725969,174.6418
-20.244944,-9.013631,175.03122
-20.244944,-9.013631,174.03122
-24.583145,-10.945122,175.11534
-24.583145,-10.945122,174.11534
-27.47528,-12.232783,174.50476
-27.47528,-12.232783,173.50476
-27.47528,-12.232783,172.50476
-27.47528,-12.232783,171.50476
-27.47528,-12.232783,170.50476
-27.47528,-12.232783,169.50476
-18.798876,-8.3698,164.33652
-20.244944,-9.013631,164.03122
-20.244944,-9.013631,163.03122
-20.244944,-9.013631,162.03122
-18.798876,-8.3698,160.33652
-20.244944,-9.013631,160.03122
-20.244944,-9.013631,159.03122
-20.244944,-9.013631,158.03122
-20.244944,-9.013631,157.03122
-20.244944,-9.013631,156.03122
-20.244944,-9.013631,155.03122
-20.244944,-9.013631,154.03122
-20.244944,-9.013631,153.03122
-18.798876,-8.3698,151.33652
-18.798876,-8.3698,150.33652
-17.352808,-7.725969,148.6418
-17.352808,-7.725969,147.6418
-15.906741,-7.082138,145.9471
-15.906741,-7.082138,144.9471
-15.906741,-7.082138,143.9471
-15.906741,-7.082138,142.9471
-15.906741,-7.082138,141.9471
-15.906741,-7.082138,140.9471
-15.906741,-7.082138,139.9471
-15.906741,-7.082138,138.9471
-15.906741,-7.082138,137.9471
-17.352808,-7.725969,137.6418
-17.352808,-7.725969,136.6418
-17.352808,-7.725969,135.6418
-17.352808,-7.725969,134.6418
-17.352808,-7.725969,133.6418
-17.352808,-7.725969,132.6418
-17.352808,-7.725969,131.6418
-17.352808,-7.725969,130.6418
-17.352808,-7.725969,129.6418
-20.244944,-9.013631,130.03122
-20.244944,-9.013631,129.03122
-17.352808,-7.725969,126.6418
-17.352808,-7.725969,125.6418
-18.798876,-8.3698,125.33651
-18.798876,-8.3698,124.33651
-17.352808,-7.725969,122.6418
-15.906741,-7.082138,120.94709
-15.906741,-7.082138,119.94709
-15.906741,-7.082138,118.94709
-13.014607,-5.794477,116.55767
-10.122472,-4.5068154,114.16826
-10.122472,-4.5068154,113.16826
-8.676404,-3.8629844,111.47355
-8.676404,-3.8629844,110.47355
-8.676404,-3.8629844,109.47355
-11.56854,-5.150646,109.86296
-13.014607,-5.794477,109.55767
-14.460675,-6.438308,109.25238
-14.460675,-6.438308,108.25238
-15.906741,-7.082138,107.94709
-15.906741,-7.082138,106.94709
-17.352808,-7.725969,106.6418
-17.352808,-7.725969,105.6418
-17.352808,-7.725969,104.6418
-17.352808,-7.725969,103.6418
-17.352808,-7.725969,102.6418
-18.798876,-8.3698,102.33651
-18.798876,-8.3698,101.33651
-18.798876,-8.3698,100.33651
-20.244944,-9.013631,100.03122
-20.244944,-9.013631,99.03122
-20.244944,-9.013631,98.03122
-20.244944,-9.013631,97.03122
-20.244944,-9.013631,96.03122
-20.244944,-9.013631,95.03122
-20.244944,-9.013631,94.03122
-20.244944,-9.013631,93.03122
-21.691011,-9.657461,92.72593
-21.691011,-9.657461,91.72593
-21.691011,-9.657461,90.72593
-21.691011,-9.657461,89.72593
-23.13708,-10.301292,89.42064
-23.13708,-10.301292,88.42064
-23.13708,-10.301292,87.42064
-23.13708,-10.301292,86.42064
-23.13708,-10.301292,85.42064
-23.13708,-10.301292,84.42064
-23.13708,-10.301292,83.42064
-21.691011,-9.657461,81.72593
-21.691011,-9.657461,80.72593
-21.691011,-9.657461,79.72593
-21.691011,-9.657461,78.72593
-28.92135,-12.876616,81.19948
-30.367416,-13.520447,80.89419
-33.259552,-14.808108,81.2836
-33.259552,-14.808108,80.2836
-34.705616,-15.451938,79.97831
-37.59775,-16.7396,80.36773
-37.59775,-16.7396,79.36773
-39.043823,-17.38343,79.06244
-39.043823,-17.38343,78.06244
-40.489887,-18.027262,77.75715
-40.489887,-18.027262,76.75715
-40.489887,-18.027262,75.75715
-41.935955,-18.671093,75.45186
-41.935955,-18.671093,74.45186
-41.935955,-18.671093,73.45186
-43.382023,-19.314922,73.14657
-43.382023,-19.314922,72.14657
-43.382023,-19.314922,71.14657
-43.382023,-19.314922,70.14657
-43.382023,-19.314922,69.14657
-43.382023,-19.314922,68.14657
-41.935955,-18.671093,66.45186
-60.734833,-27.040894,70.48308
-62.180897,-27.684721,70.17779
-60.734833,-27.040894,68.48308
-59.288765,-26.397062,66.78837
-59.288765,-26.397062,65.78837
-59.288765,-26.397062,64.78837
-59.288765,-26.397062,63.78837
-59.288765,-26.397062,62.78837
-60.734833,-27.040894,62.483078
-60.734833,-27.040894,61.483078
-62.180897,-27.684721,61.177788
-65.07303,-28.972385,61.567207
-65.07303,-28.972385,60.567207
-66.519104,-29.616217,60.261917
-66.519104,-29.616217,59.261917
-66.519104,-29.616217,58.261917
-65.07303,-28.972385,56.567207
-56.396626,-25.109398,41.398952
-56.396626,-25.109398,40.398952
-56.396626,-25.109398,39.398952
-56.396626,-25.109398,38.398952
-56.396626,-25.109398,37.398952
-54.95056,-24.465567,33.704243
-54.95056,-24.465567,32.704243
-54.95056,-24.465567,31.704243
-54.95056,-24.465567,30.704243
-54.95056,-24.465567,29.704243
-54.95056,-24.465567,28.704243
-54.95056,-24.465567,27.704243
-54.95056,-24.465567,26.704243
-54.95056,-24.465567,25.704243
-56.396626,-25.109398,24.398952
-56.396626,-25.109398,23.398952
-59.288765,-26.397062,22.78837
-60.734833,-27.040894,22.48308
-60.734833,-27.040894,21.48308
-60.734833,-27.040894,20.48308
-60.734833,-27.040894,19.48308
-60.734833,-27.040894,18.48308
-59.288765,-26.397062,16.78837
-59.288765,-26.397062,15.78837
-63.626965,-28.328552,16.872498
-63.626965,-28.328552,15.872498
-66.519104,-29.616217,16.261917
-66.519104,-29.616217,15.261917
-66.519104,-29.616217,14.261917
-67.965164,-30.260044,13.956625
-67.965164,-30.260044,12.956625
-67.965164,-30.260044,11.956625
-67.965164,-30.260044,10.956625
-67.965164,-30.260044,9.956625
-67.965164,-30.260044,8.956625
-59.288765,-26.397062,-3.2116299
-57.8427,-25.753231,-4.9063396
-59.288765,-26.397062,-5.21163
-63.626965,-28.328552,-4.1275024
-65.07303,-28.972385,-4.4327927
-67.965164,-30.260044,-4.043375
-67.965164,-30.260044,-5.043375
-72.303375,-32.191536,-3.9592476
-72.303375,-32.191536,-4.9592476
-78.08765,-34.76686,-3.1804085
-78.08765,-34.76686,-4.1804085
-80.979774,-36.054523,-3.7909927
-83.87191,-37.342186,-3.4015732
-86.764046,-38.629845,-3.0121536
-86.764046,-38.629845,-4.0121536
-91.10224,-40.56134,-2.9280243
-91.10224,-40.56134,-3.9280243
-96.88652,-43.13666,-2.149189
-96.88652,-43.13666,-3.149189
-101.224724,-45.068153,-2.0650597
-105.56292,-46.999645,-1.9809341
-107.00899,-47.64348,-2.2862244
-125.80788,-56.013275,-0.25500488
-130.14606,-57.94477,-0.17087555
-131.59213,-58.588604,-0.47616577
-135.93033,-60.52009,-0.39203644
// image  100
181.9403,92.70327,281.6878
181.9403,92.70327,280.6878
181.9403,92.70327,279.6878
181.9403,92.70327,278.6878
181.9403,92.70327,275.6878
180.52992,91.984634,275.3825
180.52992,91.984634,274.3825
181.9403,92.70327,272.6878
181.9403,92.70327,271.6878
181.9403,92.70327,270.6878
181.9403,92.70327,269.6878
181.9403,92.70327,268.6878
181.9403,92.70327,267.6878
181.9403,92.70327,266.6878
181.9403,92.70327,265.6878
181.9403,92.70327,264.6878
181.9403,92.70327,263.6878
181.9403,92.70327,262.6878
181.9403,92.70327,261.6878
181.9403,92.70327,260.6878
181.9403,92.70327,259.6878
181.9403,92.70327,258.6878
181.9403,92.70327,257.6878
181.9403,92.70327,229.6878
181.9403,92.70327,228.6878
181.9403,92.70327,227.6878
181.9403,92.70327,226.6878
181.9403,92.70327,225.6878
181.9403,92.70327,224.6878
181.9403,92.70327,223.6878
181.9403,92.70327,211.6878
180.52992,91.984634,211.3825
180.52992,91.984634,210.3825
180.52992,91.984634,209.3825
180.52992,91.984634,208.3825
181.9403,92.70327,206.6878
181.9403,92.70327,205.6878
181.9403,92.70327,204.6878
181.9403,92.70327,203.6878
181.9403,92.70327,202.6878
181.9403,92.70327,201.6878
181.9403,92.70327,200.6878
180.52992,91.984634,200.3825
180.52992,91.984634,199.3825
180.52992,91.984634,198.3825
180.52992,91.984634,197.3825
180.52992,91.984634,196.3825
181.9403,92.70327,194.6878
181.9403,92.70327,193.6878
181.9403,92.70327,192.6878
180.52992,91.984634,192.3825
180.52992,91.984634,191.3825
180.52992,91.984634,190.3825
180.52992,91.984634,189.3825
180.52992,91.984634,188.3825
180.52992,91.984634,187.3825
180.52992,91.984634,186.3825
180.52992,91.984634,185.3825
180.52992,91.984634,184.3825
180.52992,91.984634,183.3825
180.52992,91.984634,182.3825
180.52992,91.984634,181.3825
180.52992,91.984634,180.3825
180.52992,91.984634,179.3825
180.52992,91.984634,178.3825
180.52992,91.984634,177.3825
180.52992,91.984634,176.3825
180.52992,91.984634,175.3825
180.52992,91.984634,174.3825
180.52992,91.984634,173.3825
180.52992,91.984634,172.3825
180.52992,91.984634,171.3825
180.52992,91.984634,170.3825
180.52992,91.984634,169.3825
180.52992,91.984634,168.3825
180.52992,91.984634,167.3825
180.52992,91.984634,166.3825
180.52992,91.984634,165.3825
180.52992,91.984634,164.3825
180.52992,91.984634,163.3825
180.52992,91.984634,162.3825
180.52992,91.984634,161.3825
180.52992,91.984634,160.3825
180.52992,91.984634,159.3825
180.52992,91.984634,158.3825
180.52992,91.984634,157.3825
180.52992,91.984634,156.3825
180.52992,91.984634,155.3825
179.11952,91.266014,148.07721
179.11952,91.266014,147.07721
179.11952,91.266014,146.07721
179.11952,91.266014,145.07721
179.11952,91.266014,144.07721
179.11952,91.266014,143.07721
179.11952,91.266014,142.07721
179.11952,91.266014,141.07721
179.11952,91.266014,140.07721
179.11952,91.266014,139.07721
179.11952,91.266014,138.07721
179.11952,91.266014,137.07721
179.11952,91.266014,136.07721
179.11952,91.266014,135.07721
179.11952,91.266014,134.07721
1.41039,0.71862996,192.61058
1.41039,0.71862996,191.61058
-1.41039,-0.71862996,192.0
-2.82078,-1.4372599,191.6947
-2.82078,-1.4372599,190.6947
-4.2311697,-2.15589,190.38942
-4.2311697,-2.15589,189.38942
-5.64156,-2.8745198,189.08412
-5.64156,-2.8745198,188.08412
-5.64156,-2.8745198,187.08412
-7.0519505,-3.59315,186.77884
-7.0519505,-3.59315,185.77884
-8.462339,-4.31178,185.47354
-8.462339,-4.31178,184.47354
-8.462339,-4.31178,183.47354
-8.462339,-4.31178,182.47354
-8.462339,-4.31178,181.47354
-9.87273,-5.0304093,181.16826
-9.87273,-5.0304093,180.16826
-9.87273,-5.0304093,179.16826
-11.28312,-5.7490396,178.86296
-11.28312,-5.7490396,177.86296
-12.69351,-6.4676695,177.55768
-12.69351,-6.4676695,176.55768
-12.69351,-6.4676695,175.55768
-14.103901,-7.1863,175.25238
-14.103901,-7.1863,174.25238
-14.103901,-7.1863,173.25238
-19.74546,-10.060819,175.03122
-19.74546,-10.060819,174.03122
-23.97663,-12.216709,175.11534
-23.97663,-12.216709,174.11534
-25.38702,-12.935339,173.81006
-26.79741,-13.653969,173.50476
-26.79741,-13.653969,172.50476
-26.79741,-13.653969,171.50476
-26.79741,-13.653969,170.50476
-18.33507,-9.34219,165.33652
-19.74546,-10.060819,165.03122
-19.74546,-10.060819,164.03122
-19.74546,-10.060819,163.03122
-19.74546,-10.060819,162.03122
-19.74546,-10.060819,161.03122
-19.74546,-10.060819,160.03122
-19.74546,-10.060819,159.03122
-19.74546,-10.060819,158.03122
-19.74546,-10.060819,157.03122
-19.74546,-10.060819,156.03122
-19.74546,-10.060819,155.03122
-19.74546,-10.060819,154.03122
-19.74546,-10.060819,153.03122
-18.33507,-9.34219,151.33652
-16.924679,-8.62356,149.6418
-16.924679,-8.62356,148.6418
-16.924679,-8.62356,147.6418
-15.514289,-7.9049296,145.9471
-15.514289,-7.9049296,144.9471
-15.514289,-7.9049296,143.9471
-15.514289,-7.9049296,142.9471
-15.514289,-7.9049296,141.9471
-15.514289,-7.9049296,140.9471
-15.514289,-7.9049296,139.9471
-15.514289,-7.9049296,138.9471
-15.514289,-7.9049296,137.9471
-15.514289,-7.9049296,136.9471
-16.924679,-8.62356,136.6418
-16.924679,-8.62356,135.6418
-16.924679,-8.62356,134.6418
-16.924679,-8.62356,133.6418
-16.924679,-8.62356,132.6418
-16.924679,-8.62356,131.6418
-16.924679,-8.62356,130.6418
-16.924679,-8.62356,129.6418
-18.33507,-9.34219,129.33652
-18.33507,-9.34219,128.33652
-18.33507,-9.34219,127.33651
-16.924679,-8.62356,125.6418
-19.74546,-10.060819,126.03122
-18.33507,-9.34219,124.33651
-16.924679,-8.62356,122.6418
-16.924679,-8.62356,121.6418
-15.514289,-7.9049296,119.94709
-15.514289,-7.9049296,118.94709
-12.69351,-6.4676695,116.55767
-12.69351,-6.4676695,115.55767
-9.87273,-5.0304093,113.16826
-8.462339,-4.31178,111.47355
-7.0519505,-3.59315,109.77884
-7.0519505,-3.59315,108.77884
-11.28312,-5.7490396,109.86296
-11.28312,-5.7490396,108.86296
-12.69351,-6.4676695,108.55767
-14.103901,-7.1863,108.25238
-14.103901,-7.1863,107.25238
-15.514289,-7.9049296,106.94709
-15.514289,-7.9049296,105.94709
-16.924679,-8.62356,105.6418
-16.924679,-8.62356,104.6418
-16.924679,-8.62356,103.6418
-16.924679,-8.62356,102.6418
-16.924679,-8.62356,101.6418
-18.33507,-9.34219,101.33651
-18.33507,-9.34219,100.33651
-19.74546,-10.060819,100.03122
-19.74546,-10.060819,99.03122
-19.74546,-10.060819,98.03122
-19.74546,-10.060819,97.03122
-19.74546,-10.060819,96.03122
-19.74546,-10.060819,95.03122
-19.74546,-10.060819,94.03122
-19.74546,-10.060819,93.03122
-21.15585,-10.779449,92.72593
-21.15585,-10.779449,91.72593
-21.15585,-10.779449,90.72593
-21.15585,-10.779449,89.72593
-22.56624,-11.498079,89.42064
-22.56624,-11.498079,88.42064
-22.56624,-11.498079,87.42064
-22.56624,-11.498079,86.42064
-22.56624,-11.498079,85.42064
-22.56624,-11.498079,84.42064
-22.56624,-11.498079,83.42064
-21.15585,-10.779449,81.72593
-21.15585,-10.779449,80.72593
-21.15585,-10.779449,79.72593
-21.15585,-10.779449,78.72593
-29.618189,-15.0912285,81.89419
-31.028578,-15.809859,81.5889
-31.028578,-15.809859,80.5889
-31.028578,-15.809859,79.5889
-32.43897,-16.52849,79.2836
-33.849358,-17.24712,78.97831
-35.25975,-17.965748,78.67302
-36.67014,-18.68438,78.36773
-36.67014,-18.68438,77.36773
-38.080532,-19.40301,77.06244
-38.080532,-19.40301,76.06244
-38.080532,-19.40301,75.06244
-39.49092,-20.121637,74.75715
-39.49092,-20.121637,73.75715
-39.49092,-20.121637,72.75715
-39.49092,-20.121637,71.75715
-39.49092,-20.121637,70.75715
-39.49092,-20.121637,69.75715
-39.49092,-20.121637,68.75715
-39.49092,-20.121637,67.75715
-39.49092,-20.121637,66.75715
-39.49092,-20.121637,65.75715
-57.825993,-29.463829,64.78837
-59.236378,-30.182457,64.48308
-59.236378,-30.182457,63.483078
-60.646767,-30.901089,63.177788
-60.646767,-30.901089,62.177788
-60.646767,-30.901089,61.177788
-60.646767,-30.901089,60.177788
-60.646767,-30.901089,59.177788
-52.18443,-26.58931,37.009533
-52.18443,-26.58931,36.009533
-52.18443,-26.58931,35.009533
-52.18443,-26.58931,34.009533
-52.18443,-26.58931,33.009533
-52.18443,-26.58931,32.009533
-52.18443,-26.58931,31.009533
-53.59482,-27.307938,30.704243
-60.646767,-30.901089,15.177788
-63.467545,-32.33835,15.567207
-64.87794,-33.05698,15.261917
-64.87794,-33.05698,14.261917
-64.87794,-33.05698,13.261917
-66.28833,-33.775608,12.956625
-66.28833,-33.775608,11.956625
-66.28833,-33.775608,10.956625
-55.005207,-28.026567,-4.6010475
-55.005207,-28.026567,-5.6010475
-55.005207,-28.026567,-6.6010475
-60.646767,-30.901089,-4.822212
-62.057156,-31.619719,-5.1275024
-66.28833,-33.775608,-4.043375
-66.28833,-33.775608,-5.043375
-70.5195,-35.931496,-3.9592476
-70.5195,-35.931496,-4.9592476
-76.161064,-38.80602,-3.1804085
-76.161064,-38.80602,-4.1804085
-78.98184,-40.243275,-3.7909927
-81.80262,-41.68054,-3.4015732
-84.6234,-43.117798,-3.0121536
-84.6234,-43.117798,-4.0121536
-88.85457,-45.27369,-2.9280243
-88.85457,-45.27369,-3.9280243
-94.49613,-48.148205,-2.149189
-94.49613,-48.148205,-3.149189
-98.7273,-50.304096,-2.0650597
-104.36886,-53.17862,-2.2862244
-122.70394,-62.520805,-0.25500488
-126.93509,-64.6767,-0.17087555
-126.93509,-64.6767,-1.1708755
-132.57666,-67.551216,0.60796356
-132.57666,-67.551216,-0.39203644
// image  101
176.8393,102.09819,282.6878
176.8393,102.09819,281.6878
176.8393,102.09819,280.6878
176.8393,102.09819,279.6878
176.8393,102.09819,275.6878
175.46844,101.306725,275.3825
176.8393,102.09819,273.6878
176.8393,102.09819,272.6878
176.8393,102.09819,271.6878
176.8393,102.09819,270.6878
176.8393,102.09819,269.6878
176.8393,102.09819,268.6878
176.8393,102.09819,267.6878
176.8393,102.09819,266.6878
176.8393,102.09819,265.6878
176.8393,102.09819,264.6878
176.8393,102.09819,263.6878
176.8393,102.09819,262.6878
176.8393,102.09819,261.6878
176.8393,102.09819,260.6878
176.8393,102.09819,259.6878
176.8393,102.09819,258.6878
178.21014,102.88964,256.9931
176.8393,102.09819,230.6878
176.8393,102.09819,229.6878
176.8393,102.09819,228.6878
176.8393,102.09819,227.6878
176.8393,102.09819,226.6878
176.8393,102.09819,225.6878
176.8393,102.09819,224.6878
176.8393,102.09819,223.6878
176.8393,102.09819,212.6878
176.8393,102.09819,211.6878
175.46844,101.306725,211.3825
175.46844,101.306725,210.3825
175.46844,101.306725,209.3825
175.46844,101.306725,208.3825
176.8393,102.09819,206.6878
176.8393,102.09819,205.6878
176.8393,102.09819,204.6878
176.8393,102.09819,203.6878
176.8393,102.09819,202.6878
176.8393,102.09819,201.6878
176.8393,102.09819,200.6878
176.8393,102.09819,199.6878
176.8393,102.09819,198.6878
176.8393,102.09819,197.6878
176.8393,102.09819,196.6878
175.46844,101.306725,196.3825
176.8393,102.09819,194.6878
176.8393,102.09819,193.6878
176.8393,102.09819,192.6878
175.46844,101.306725,192.3825
175.46844,101.306725,191.3825
175.46844,101.306725,190.3825
175.46844,101.306725,189.3825
175.46844,101.306725,188.3825
175.46844,101.306725,187.3825
175.46844,101.306725,186.3825
175.46844,101.306725,185.3825
175.46844,101.306725,184.3825
175.46844,101.306725,183.3825
175.46844,101.306725,182.3825
175.46844,101.306725,181.3825
175.46844,101.306725,180.3825
175.46844,101.306725,179.3825
175.46844,101.306725,178.3825
175.46844,101.306725,177.3825
175.46844,101.306725,176.3825
175.46844,101.306725,175.3825
175.46844,101.306725,174.3825
175.46844,101.306725,173.3825
175.46844,101.306725,172.3825
175.46844,101.306725,171.3825
175.46844,101.306725,170.3825
175.46844,101.306725,169.3825
175.46844,101.306725,168.3825
175.46844,101.306725,167.3825
175.46844,101.306725,166.3825
175.46844,101.306725,165.3825
175.46844,101.306725,164.3825
175.46844,101.306725,163.3825
175.46844,101.306725,162.3825
175.46844,101.306725,161.3825
175.46844,101.306725,160.3825
175.46844,101.306725,159.3825
175.46844,101.306725,158.3825
175.46844,101.306725,157.3825
175.46844,101.306725,156.3825
174.09758,100.515274,147.07721
174.09758,100.515274,146.07721
174.09758,100.515274,145.07721
174.09758,100.515274,144.07721
174.09758,100.515274,143.07721
174.09758,100.515274,142.07721
174.09758,100.515274,141.07721
174.09758,100.515274,140.07721
174.09758,100.515274,139.07721
174.09758,100.515274,138.07721
174.09758,100.515274,137.07721
174.09758,100.515274,136.07721
174.09758,100.515274,135.07721
174.09758,100.515274,134.07721
1.3708472,0.7914588,192.61058
1.3708472,0.7914588,191.61058
-1.3708472,-0.7914588,192.0
-2.7416945,-1.5829176,191.6947
-2.7416945,-1.5829176,190.6947
-4.112541,-2.3743763,190.38942
-4.112541,-2.3743763,189.38942
-5.483389,-3.1658351,189.08412
-5.483389,-3.1658351,188.08412
-5.483389,-3.1658351,187.08412
-5.483389,-3.1658351,186.08412
-8.225082,-4.7487526,186.47354
-8.225082,-4.7487526,185.47354
-8.225082,-4.7487526,184.47354
-8.225082,-4.7487526,183.47354
-8.225082,-4.7487526,182.47354
-8.225082,-4.7487526,181.47354
-9.59593,-5.540211,181.16826
-9.59593,-5.540211,180.16826
-9.59593,-5.540211,179.16826
-9.59593,-5.540211,178.16826
-10.966778,-6.3316703,177.86296
-12.3376255,-7.1231294,177.55768
-12.3376255,-7.1231294,176.55768
-13.708472,-7.9145885,176.25238
-13.708472,-7.9145885,175.25238
-13.708472,-7.9145885,174.25238
-16.450165,-9.497505,174.6418
-20.562708,-11.871882,175.72592
-20.562708,-11.871882,174.72592
-23.304401,-13.454799,175.11534
-24.675251,-14.246259,174.81006
-24.675251,-14.246259,173.81006
-26.046097,-15.037718,173.50476
-26.046097,-15.037718,172.50476
-26.046097,-15.037718,171.50476
-19.19186,-11.080422,167.03122
-19.19186,-11.080422,166.03122
-19.19186,-11.080422,165.03122
-19.19186,-11.080422,164.03122
-19.19186,-11.080422,163.03122
-19.19186,-11.080422,162.03122
-19.19186,-11.080422,161.03122
-19.19186,-11.080422,160.03122
-19.19186,-11.080422,159.03122
-19.19186,-11.080422,158.03122
-19.19186,-11.080422,157.03122
-19.19186,-11.080422,156.03122
-19.19186,-11.080422,155.03122
-19.19186,-11.080422,154.03122
-17.821012,-10.288964,152.33652
-17.821012,-10.288964,151.33652
-16.450165,-9.497505,149.6418
-16.450165,-9.497505,148.6418
-15.079318,-8.706046,146.9471
-15.079318,-8.706046,145.9471
-15.079318,-8.706046,144.9471
-15.079318,-8.706046,143.9471
-15.079318,-8.706046,142.9471
-16.450165,-9.497505,142.6418
-16.450165,-9.497505,141.6418
-15.079318,-8.706046,139.9471
-15.079318,-8.706046,138.9471
-15.079318,-8.706046,137.9471
-15.079318,-8.706046,136.9471
-16.450165,-9.497505,136.6418
-16.450165,-9.497505,135.6418
-16.450165,-9.497505,134.6418
-16.450165,-9.497505,133.6418
-16.450165,-9.497505,132.6418
-16.450165,-9.497505,131.6418
-17.821012,-10.288964,131.33652
-19.19186,-11.080422,131.03122
-19.19186,-11.080422,130.03122
-19.19186,-11.080422,129.03122
-17.821012,-10.288964,127.33651
-16.450165,-9.497505,125.6418
-19.19186,-11.080422,126.03122
-19.19186,-11.080422,125.03122
-16.450165,-9.497505,122.6418
-16.450165,-9.497505,121.6418
-15.079318,-8.706046,119.94709
-15.079318,-8.706046,118.94709
-15.079318,-8.706046,117.94709
-12.3376255,-7.1231294,115.55767
-9.59593,-5.540211,113.16826
-6.854236,-3.9572942,110.77884
-5.483389,-3.1658351,109.08413
-5.483389,-3.1658351,108.08413
-10.966778,-6.3316703,108.86296
-12.3376255,-7.1231294,108.55767
-13.708472,-7.9145885,108.25238
-13.708472,-7.9145885,107.25238
-15.079318,-8.706046,106.94709
-15.079318,-8.706046,105.94709
-16.450165,-9.497505,105.6418
-16.450165,-9.497505,104.6418
-16.450165,-9.497505,103.6418
-16.450165,-9.497505,102.6418
-17.821012,-10.288964,102.33651
-17.821012,-10.288964,101.33651
-17.821012,-10.288964,100.33651
-19.19186,-11.080422,100.03122
-19.19186,-11.080422,99.03122
-19.19186,-11.080422,98.03122
-19.19186,-11.080422,97.03122
-19.19186,-11.080422,96.03122
-19.19186,-11.080422,95.03122
-19.19186,-11.080422,94.03122
-19.19186,-11.080422,93.03122
-20.562708,-11.871882,92.72593
-20.562708,-11.871882,91.72593
-20.562708,-11.871882,90.72593
-21.933556,-12.663341,90.42064
-21.933556,-12.663341,89.42064
-21.933556,-12.663341,88.42064
-21.933556,-12.663341,87.42064
-21.933556,-12.663341,86.42064
-21.933556,-12.663341,85.42064
-21.933556,-12.663341,84.42064
-20.562708,-11.871882,82.72593
-20.562708,-11.871882,81.72593
-20.562708,-11.871882,80.72593
-20.562708,-11.871882,79.72593
-20.562708,-11.871882,78.72593
-28.78779,-16.620636,81.89419
-30.158636,-17.412092,81.5889
-30.158636,-17.412092,80.5889
-30.158636,-17.412092,79.5889
-31.529486,-18.203552,79.2836
-31.529486,-18.203552,78.2836
-32.90033,-18.99501,77.97831
-34.27118,-19.78647,77.67302
-34.27118,-19.78647,76.67302
-35.642025,-20.577929,76.36773
-35.642025,-20.577929,75.36773
-35.642025,-20.577929,74.36773
-35.642025,-20.577929,73.36773
-37.012875,-21.369387,73.06244
-37.012875,-21.369387,72.06244
-37.012875,-21.369387,71.06244
-37.012875,-21.369387,70.06244
-37.012875,-21.369387,69.06244
-37.012875,-21.369387,68.06244
-37.012875,-21.369387,67.06244
-47.979656,-27.70106,38.620117
-47.979656,-27.70106,37.620117
-47.979656,-27.70106,36.620117
-47.979656,-27.70106,35.620117
-49.350502,-28.492517,35.314823
-49.350502,-28.492517,34.314823
-49.350502,-28.492517,33.314823
-49.350502,-28.492517,32.314823
-49.350502,-28.492517,31.314823
-61.688118,-35.615646,11.567207
-63.05897,-36.407104,11.261917
-63.05897,-36.407104,10.261917
-52.092194,-30.075436,-3.2957573
-52.092194,-30.075436,-4.2957573
-52.092194,-30.075436,-5.2957573
-53.46304,-30.866894,-5.6010475
-57.57558,-33.241272,-4.51692
-60.317272,-34.824184,-4.1275024
-60.317272,-34.824184,-5.1275024
-64.42982,-37.198563,-4.043375
-64.42982,-37.198563,-5.043375
-68.54236,-39.57294,-3.9592476
-69.91321,-40.3644,-4.264538
-74.02575,-42.738773,-3.1804085
-74.02575,-42.738773,-4.1804085
-79.50913,-45.904613,-3.4015732
-82.25083,-47.48753,-3.0121536
-83.62168,-48.278988,-3.3174438
-86.363365,-49.861904,-2.9280243
-86.363365,-49.861904,-3.9280243
-91.84676,-53.027737,-2.149189
-91.84676,-53.027737,-3.149189
-100.07184,-57.776493,-1.9809341
-101.442696,-58.56795,-2.2862244
-106.92608,-61.733788,-1.5073891
-119.26371,-68.85692,-0.25500488
-128.85963,-74.397125,0.60796356
-128.85963,-74.397125,-0.39203644
// image  102
171.25351,111.213356,282.6878
171.25351,111.213356,281.6878
171.25351,111.213356,280.6878
171.25351,111.213356,279.6878
171.25351,111.213356,278.6878
171.25351,111.213356,275.6878
169.92596,110.351234,275.3825
169.92596,110.351234,274.3825
171.25351,111.213356,272.6878
171.25351,111.213356,271.6878
171.25351,111.213356,270.6878
171.25351,111.213356,269.6878
171.25351,111.213356,268.6878
171.25351,111.213356,267.6878
171.25351,111.213356,266.6878
171.25351,111.213356,265.6878
171.25351,111.213356,264.6878
171.25351,111.213356,263.6878
171.25351,111.213356,262.6878
171.25351,111.213356,261.6878
171.25351,111.213356,260.6878
171.25351,111.213356,259.6878
171.25351,111.213356,258.6878
171.25351,111.213356,257.6878
171.25351,111.213356,229.6878
171.25351,111.213356,228.6878
171.25351,111.213356,227.6878
171.25351,111.213356,226.6878
171.25351,111.213356,225.6878
171.25351,111.213356,224.6878
171.25351,111.213356,223.6878
169.92596,110.351234,211.3825
169.92596,110.351234,210.3825
169.92596,110.351234,209.3825
169.92596,110.351234,208.3825
171.25351,111.213356,206.6878
171.25351,111.213356,205.6878
171.25351,111.213356,204.6878
171.25351,111.213356,203.6878
171.25351,111.213356,202.6878
171.25351,111.213356,201.6878
171.25351,111.213356,200.6878
171.25351,111.213356,199.6878
169.92596,110.351234,199.3825
171.25351,111.213356,197.6878
171.25351,111.213356,196.6878
171.25351,111.213356,195.6878
171.25351,111.213356,194.6878
171.25351,111.213356,193.6878
171.25351,111.213356,192.6878
169.92596,110.351234,192.3825
169.92596,110.351234,191.3825
169.92596,110.351234,190.3825
169.92596,110.351234,189.3825
169.92596,110.351234,188.3825
169.92596,110.351234,187.3825
169.92596,110.351234,186.3825
169.92596,110.351234,185.3825
169.92596,110.351234,184.3825
169.92596,110.351234,183.3825
169.92596,110.351234,182.3825
169.92596,110.351234,181.3825
169.92596,110.351234,180.3825
169.92596,110.351234,179.3825
169.92596,110.351234,178.3825
169.92596,110.351234,177.3825
169.92596,110.351234,176.3825
169.92596,110.351234,175.3825
169.92596,110.351234,174.3825
169.92596,110.351234,173.3825
169.92596,110.351234,172.3825
169.92596,110.351234,171.3825
169.92596,110.351234,170.3825
169.92596,110.351234,169.3825
169.92596,110.351234,168.3825
169.92596,110.351234,167.3825
169.92596,110.351234,166.3825
169.92596,110.351234,165.3825
169.92596,110.351234,164.3825
169.92596,110.351234,163.3825
169.92596,110.351234,162.3825
169.92596,110.351234,161.3825
169.92596,110.351234,160.3825
169.92596,110.351234,159.3825
169.92596,110.351234,158.3825
169.92596,110.351234,157.3825
169.92596,110.351234,156.3825
169.92596,110.351234,155.3825
168.5984,109.48912,147.07721
168.5984,109.48912,146.07721
168.5984,109.48912,145.07721
168.5984,109.48912,144.07721
168.5984,109.48912,143.07721
168.5984,109.48912,142.07721
168.5984,109.48912,141.07721
168.5984,109.48912,140.07721
168.5984,109.48912,139.07721
168.5984,109.48912,138.07721
168.5984,109.48912,137.07721
168.5984,109.48912,136.07721
168.5984,109.48912,135.07721
168.5984,109.48912,134.07721
1.3275466,0.862119,192.61058
1.3275466,0.862119,191.61058
-1.3275466,-0.862119,192.0
-2.6550932,-1.724238,191.6947
-2.6550932,-1.724238,190.6947
-3.9826396,-2.5863569,190.38942
-3.9826396,-2.5863569,189.38942
-5.3101864,-3.448476,189.08412
-5.3101864,-3.448476,188.08412
-5.3101864,-3.448476,187.08412
-5.3101864,-3.448476,186.08412
-6.637733,-4.310595,185.77884
-7.965279,-5.1727138,185.47354
-7.965279,-5.1727138,184.47354
-7.965279,-5.1727138,183.47354
-7.965279,-5.1727138,182.47354
-7.965279,-5.1727138,181.47354
-7.965279,-5.1727138,180.47354
-9.292826,-6.0348325,180.16826
-9.292826,-6.0348325,179.16826
-9.292826,-6.0348325,178.16826
-9.292826,-6.0348325,177.16826
-10.620373,-6.896952,176.86296
-11.947919,-7.759071,176.55768
-11.947919,-7.759071,175.55768
-13.275466,-8.62119,175.25238
-13.275466,-8.62119,174.25238
-15.930558,-10.3454275,174.6418
-19.913198,-12.931786,175.72592
-19.913198,-12.931786,174.72592
-22.56829,-14.656022,175.11534
-23.895838,-15.518142,174.81006
-23.895838,-15.518142,173.81006
-23.895838,-15.518142,172.81006
-23.895838,-15.518142,171.81006
-23.895838,-15.518142,170.81006
-18.585651,-12.069665,167.03122
-18.585651,-12.069665,166.03122
-18.585651,-12.069665,165.03122
-18.585651,-12.069665,164.03122
-18.585651,-12.069665,163.03122
-17.258104,-11.207546,161.33652
-18.585651,-12.069665,161.03122
-18.585651,-12.069665,160.03122
-18.585651,-12.069665,159.03122
-18.585651,-12.069665,158.03122
-18.585651,-12.069665,157.03122
-18.585651,-12.069665,156.03122
-18.585651,-12.069665,155.03122
-18.585651,-12.069665,154.03122
-17.258104,-11.207546,152.33652
-17.258104,-11.207546,151.33652
-14.603011,-9.483309,148.9471
-13.275466,-8.62119,147.25238
-13.275466,-8.62119,146.25238
-14.603011,-9.483309,145.9471
-14.603011,-9.483309,144.9471
-14.603011,-9.483309,143.9471
-13.275466,-8.62119,142.25238
-11.947919,-7.759071,140.55768
-11.947919,-7.759071,139.55768
-14.603011,-9.483309,139.9471
-14.603011,-9.483309,138.9471
-14.603011,-9.483309,137.9471
-14.603011,-9.483309,136.9471
-15.930558,-10.3454275,136.6418
-15.930558,-10.3454275,135.6418
-15.930558,-10.3454275,134.6418
-15.930558,-10.3454275,133.6418
-17.258104,-11.207546,133.33652
-17.258104,-11.207546,132.33652
-17.258104,-11.207546,131.33652
-17.258104,-11.207546,130.33652
-18.585651,-12.069665,130.03122
-18.585651,-12.069665,129.03122
-17.258104,-11.207546,127.33651
-17.258104,-11.207546,126.33651
-18.585651,-12.069665,126.03122
-17.258104,-11.207546,124.33651
-17.258104,-11.207546,123.33651
-15.930558,-10.3454275,121.6418
-15.930558,-10.3454275,120.6418
-14.603011,-9.483309,118.94709
-14.603011,-9.483309,117.94709
-11.947919,-7.759071,115.55767
-11.947919,-7.759071,114.55767
-7.965279,-5.1727138,111.47355
-5.3101864,-3.448476,109.08413
-5.3101864,-3.448476,108.08413
-5.3101864,-3.448476,107.08413
-9.292826,-6.0348325,108.16826
-10.620373,-6.896952,107.86296
-13.275466,-8.62119,108.25238
-13.275466,-8.62119,107.25238
-14.603011,-9.483309,106.94709
-14.603011,-9.483309,105.94709
-15.930558,-10.3454275,105.6418
-15.930558,-10.3454275,104.6418
-15.930558,-10.3454275,103.6418
-15.930558,-10.3454275,102.6418
-15.930558,-10.3454275,101.6418
-17.258104,-11.207546,101.33651
-17.258104,-11.207546,100.33651
-17.258104,-11.207546,99.33651
-18.585651,-12.069665,99.03122
-17.258104,-11.207546,97.33651
-17.258104,-11.207546,96.33651
-18.585651,-12.069665,96.03122
-18.585651,-12.069665,95.03122
-18.585651,-12.069665,94.03122
-18.585651,-12.069665,93.03122
-18.585651,-12.069665,92.03122
-19.913198,-12.931786,91.72593
-19.913198,-12.931786,90.72593
-19.913198,-12.931786,89.72593
-19.913198,-12.931786,88.72593
-19.913198,-12.931786,87.72593
-21.240746,-13.793904,87.42064
-19.913198,-12.931786,85.72593
-19.913198,-12.931786,84.72593
-19.913198,-12.931786,83.72593
-19.913198,-12.931786,82.72593
-19.913198,-12.931786,81.72593
-18.585651,-12.069665,80.03122
-18.585651,-12.069665,79.03122
-19.913198,-12.931786,78.72593
-19.913198,-12.931786,77.72593
-19.913198,-12.931786,76.72593
-29.206022,-18.966618,80.5889
-29.206022,-18.966618,79.5889
-29.206022,-18.966618,78.5889
-29.206022,-18.966618,77.5889
-30.533571,-19.828737,77.2836
-30.533571,-19.828737,76.2836
-31.861116,-20.690855,75.97831
-31.861116,-20.690855,74.97831
-33.188663,-21.552975,74.67302
-33.188663,-21.552975,73.67302
-33.188663,-21.552975,72.67302
-33.188663,-21.552975,71.67302
-49.11922,-31.898401,-4.990467
-50.446766,-32.76052,-5.2957573
-51.77431,-33.62264,-5.6010475
-51.77431,-33.62264,-6.6010475
-57.0845,-37.071117,-4.822212
-58.412045,-37.933235,-5.1275024
-61.067142,-39.657475,-4.738083
-61.067142,-39.657475,-5.738083
-66.37733,-43.10595,-3.9592476
-66.37733,-43.10595,-4.9592476
-71.687515,-46.554424,-3.1804085
-71.687515,-46.554424,-4.1804085
-73.01506,-47.416546,-4.4856987
-75.67015,-49.14078,-4.096283
-78.32525,-50.86502,-3.7068634
-79.652794,-51.727142,-4.0121536
-83.63543,-54.313496,-2.9280243
-87.61807,-56.899853,-2.8438988
-92.92826,-60.34833,-2.0650597
-114.169,-74.142235,-0.94971466
-119.47918,-77.59071,-0.17087555
// image  103
165.19833,120.02369,282.6878
165.19833,120.02369,281.6878
165.19833,120.02369,280.6878
165.19833,120.02369,279.6878
165.19833,120.02369,278.6878
165.19833,120.02369,275.6878
163.91772,119.09326,275.3825
163.91772,119.09326,274.3825
165.19833,120.02369,272.6878
165.19833,120.02369,271.6878
165.19833,120.02369,270.6878
165.19833,120.02369,269.6878
165.19833,120.02369,268.6878
165.19833,120.02369,267.6878
165.19833,120.02369,266.6878
165.19833,120.02369,265.6878
165.19833,120.02369,264.6878
165.19833,120.02369,263.6878
165.19833,120.02369,262.6878
165.19833,120.02369,261.6878
165.19833,120.02369,260.6878
165.19833,120.02369,259.6878
165.19833,120.02369,258.6878
165.19833,120.02369,257.6878
165.19833,120.02369,229.6878
165.19833,120.02369,228.6878
165.19833,120.02369,227.6878
165.19833,120.02369,226.6878
165.19833,120.02369,225.6878
165.19833,120.02369,224.6878
165.19833,120.02369,223.6878
165.19833,120.02369,211.6878
163.91772,119.09326,211.3825
163.91772,119.09326,210.3825
163.91772,119.09326,209.3825
165.19833,120.02369,207.6878
165.19833,120.02369,206.6878
165.19833,120.02369,205.6878
165.19833,120.02369,204.6878
165.19833,120.02369,203.6878
165.19833,120.02369,202.6878
165.19833,120.02369,201.6878
165.19833,120.02369,200.6878
163.91772,119.09326,200.3825
163.91772,119.09326,199.3825
163.91772,119.09326,198.3825
163.91772,119.09326,197.3825
163.91772,119.09326,196.3825
165.19833,120.02369,194.6878
163.91772,119.09326,194.3825
163.91772,119.09326,193.3825
163.91772,119.09326,192.3825
163.91772,119.09326,191.3825
163.91772,119.09326,190.3825
163.91772,119.09326,189.3825
163.91772,119.09326,188.3825
163.91772,119.09326,187.3825
163.91772,119.09326,186.3825
163.91772,119.09326,185.3825
163.91772,119.09326,184.3825
163.91772,119.09326,183.3825
163.91772,119.09326,182.3825
163.91772,119.09326,181.3825
163.91772,119.09326,180.3825
163.91772,119.09326,179.3825
163.91772,119.09326,178.3825
163.91772,119.09326,177.3825
163.91772,119.09326,176.3825
163.91772,119.09326,175.3825
163.91772,119.09326,174.3825
163.91772,119.09326,173.3825
163.91772,119.09326,172.3825
163.91772,119.09326,171.3825
163.91772,119.09326,170.3825
163.91772,119.09326,169.3825
163.91772,119.09326,168.3825
163.91772,119.09326,167.3825
163.91772,119.09326,166.3825
163.91772,119.09326,165.3825
163.91772,119.09326,164.3825
163.91772,119.09326,163.3825
163.91772,119.09326,162.3825
163.91772,119.09326,161.3825
163.91772,119.09326,160.3825
163.91772,119.09326,159.3825
163.91772,119.09326,158.3825
163.91772,119.09326,157.3825
163.91772,119.09326,156.3825
163.91772,119.09326,155.3825
162.6371,118.16286,147.07721
162.6371,118.16286,146.07721
162.6371,118.16286,145.07721
162.6371,118.16286,144.07721
162.6371,118.16286,143.07721
162.6371,118.16286,142.07721
162.6371,118.16286,141.07721
162.6371,118.16286,140.07721
162.6371,118.16286,139.07721
162.6371,118.16286,138.07721
162.6371,118.16286,137.07721
162.6371,118.16286,136.07721
162.6371,118.16286,135.07721
162.6371,118.16286,134.07721
1.2806072,0.9304161,192.61058
1.2806072,0.9304161,191.61058
-1.2806072,-0.9304161,192.0
