// image  001
-130.18987,-66.33507,119.94018
-130.18987,-66.33507,118.94018
-130.18987,-66.33507,117.94018
-130.18987,-66.33507,116.94018
-130.18987,-66.33507,115.94018
-130.18987,-66.33507,114.94018
-130.18987,-66.33507,113.94018
-130.18987,-66.33507,112.94018
-130.18987,-66.33507,111.94018
-130.18987,-66.33507,110.94018
-130.18987,-66.33507,109.94018
-130.18987,-66.33507,108.94018
-130.18987,-66.33507,107.94018
-130.18987,-66.33507,106.94018
-130.18987,-66.33507,105.94018
-130.18987,-66.33507,104.94018
-130.18987,-66.33507,103.94018
-130.18987,-66.33507,102.94018
-130.18987,-66.33507,101.94018
-130.18987,-66.33507,100.94018
-130.18987,-66.33507,99.94018
-130.18987,-66.33507,98.94018
-130.18987,-66.33507,97.94018
-130.18987,-66.33507,96.94018
-130.18987,-66.33507,95.94018
-130.18987,-66.33507,94.94018
-130.18987,-66.33507,93.94018
-129.10493,-65.78227,93.63489
-129.10493,-65.78227,92.63489
-129.10493,-65.78227,91.63489
-129.10493,-65.78227,90.63489
-129.10493,-65.78227,89.63489
-129.10493,-65.78227,88.63489
-129.10493,-65.78227,87.63489
-129.10493,-65.78227,86.63489
-128.02003,-65.229485,86.3296
-128.02003,-65.229485,85.3296
-128.02003,-65.229485,84.3296
-129.10493,-65.78227,82.63489
-129.10493,-65.78227,81.63489
-129.10493,-65.78227,80.63489
-129.10493,-65.78227,79.63489
-128.02003,-65.229485,79.3296
-129.10493,-65.78227,77.63489
-128.02003,-65.229485,77.3296
-128.02003,-65.229485,76.3296
-128.02003,-65.229485,75.3296
-128.02003,-65.229485,74.3296
-128.02003,-65.229485,73.3296
-128.02003,-65.229485,72.3296
-128.02003,-65.229485,71.3296
-128.02003,-65.229485,70.3296
-128.02003,-65.229485,54.329597
-128.02003,-65.229485,53.329597
-128.02003,-65.229485,52.329597
-128.02003,-65.229485,51.329597
-128.02003,-65.229485,50.329597
-40.141872,-20.453312,97.60104
-6.509493,-3.3167534,79.13704
-6.509493,-3.3167534,78.13704
-5.4245777,-2.7639613,77.83174
-3.2547464,-1.6583767,78.22116
-3.2547464,-1.6583767,77.22116
-2.169831,-1.1055844,76.91587
-1.0849155,-0.5527922,76.61058
0.0,0.0,76.30529
0.0,0.0,75.30529
0.0,0.0,74.30529
0.0,0.0,73.30529
1.0849155,0.5527922,73.0
2.169831,1.1055844,72.69471
2.169831,1.1055844,71.69471
3.2547464,1.6583767,71.38942
3.2547464,1.6583767,70.38942
3.2547464,1.6583767,69.38942
7.594408,3.8695455,71.16826
9.764239,4.97513,71.55767
10.849155,5.5279226,71.25238
10.849155,5.5279226,70.25238
10.849155,5.5279226,69.25238
10.849155,5.5279226,68.25238
11.934071,6.080714,67.94709
11.934071,6.080714,66.94709
11.934071,6.080714,65.94709
13.018986,6.633507,65.6418
14.103902,7.186299,65.33651
14.103902,7.186299,64.33651
14.103902,7.186299,63.33651
15.188816,7.739091,63.03122
15.188816,7.739091,62.03122
15.188816,7.739091,61.03122
15.188816,7.739091,60.03122
15.188816,7.739091,59.03122
15.188816,7.739091,58.03122
15.188816,7.739091,57.03122
16.273733,8.291883,56.72593
16.273733,8.291883,55.72593
16.273733,8.291883,54.72593
16.273733,8.291883,53.72593
16.273733,8.291883,52.72593
16.273733,8.291883,51.72593
13.018986,6.633507,48.6418
13.018986,6.633507,47.6418
13.018986,6.633507,46.6418
11.934071,6.080714,44.947094
11.934071,6.080714,43.947094
11.934071,6.080714,42.947094
11.934071,6.080714,41.947094
14.103902,7.186299,42.33651
14.103902,7.186299,41.33651
14.103902,7.186299,40.33651
19.528479,9.95026,42.81006
19.528479,9.95026,41.81006
22.783226,11.608637,42.894184
23.868141,12.161428,42.588894
28.207804,14.372598,44.36773
29.292719,14.92539,44.06244
29.292719,14.92539,43.06244
30.377632,15.478182,42.75715
31.462551,16.030975,42.45186
31.462551,16.030975,41.45186
31.462551,16.030975,40.45186
32.547466,16.583767,40.14657
31.462551,16.030975,38.45186
31.462551,16.030975,37.45186
31.462551,16.030975,36.45186
31.462551,16.030975,35.45186
30.377632,15.478182,33.75715
30.377632,15.478182,32.75715
30.377632,15.478182,31.75715
30.377632,15.478182,30.75715
30.377632,15.478182,29.75715
30.377632,15.478182,28.75715
30.377632,15.478182,27.75715
30.377632,15.478182,26.75715
30.377632,15.478182,25.75715
31.462551,16.030975,25.451859
32.547466,16.583767,25.146568
31.462551,16.030975,23.451859
31.462551,16.030975,22.451859
31.462551,16.030975,21.451859
31.462551,16.030975,20.451859
31.462551,16.030975,19.451859
31.462551,16.030975,18.451859
31.462551,16.030975,17.451859
31.462551,16.030975,16.451859
31.462551,16.030975,15.4518585
31.462551,16.030975,14.4518585
31.462551,16.030975,13.4518585
31.462551,16.030975,12.4518585
31.462551,16.030975,11.4518585
32.547466,16.583767,11.146568
32.547466,16.583767,10.146568
32.547466,16.583767,9.146568
31.462551,16.030975,7.4518585
32.547466,16.583767,7.1465683
32.547466,16.583767,6.1465683
32.547466,16.583767,5.1465683
31.462551,16.030975,3.4518585
31.462551,16.030975,2.4518585
32.547466,16.583767,2.1465683
32.547466,16.583767,1.1465683
33.63238,17.136559,0.8412781
34.717297,17.68935,0.53598785
37.972042,19.347729,1.6201153
40.141872,20.453312,2.009533
55.330692,28.192404,3.7354622
55.330692,28.192404,2.7354622
59.67035,30.403572,4.5143013
60.755264,30.956364,4.2090073
62.925102,32.06195,4.598427
64.01002,32.614742,4.2931366
67.26476,34.273117,5.377266
68.34968,34.82591,5.0719757
71.60442,36.484287,6.156101
71.60442,36.484287,5.156101
74.85917,38.142666,6.2402306
75.944084,38.695457,5.9349403
80.283745,40.906624,6.7137756
81.36866,41.459415,6.4084854
85.70833,43.670586,7.1873207
86.79324,44.22338,6.8820305
90.04799,45.881756,7.96616
// image  041
-130.75774,-75.49302,285.16135
-130.75774,-75.49302,278.16135
-130.75774,-75.49302,277.16135
-130.75774,-75.49302,276.16135
-129.70323,-74.8842,275.85605
-129.70323,-74.8842,274.85605
-129.70323,-74.8842,273.85605
-129.70323,-74.8842,272.85605
-130.75774,-75.49302,271.16135
-130.75774,-75.49302,270.16135
-129.70323,-74.8842,269.85605
-129.70323,-74.8842,268.85605
-129.70323,-74.8842,267.85605
-129.70323,-74.8842,266.85605
-129.70323,-74.8842,265.85605
-130.75774,-75.49302,264.16135
-130.75774,-75.49302,263.16135
-130.75774,-75.49302,262.16135
-130.75774,-75.49302,261.16135
-130.75774,-75.49302,260.16135
-129.70323,-74.8842,232.85605
-129.70323,-74.8842,231.85605
-129.70323,-74.8842,230.85605
-129.70323,-74.8842,229.85605
-129.70323,-74.8842,228.85605
-129.70323,-74.8842,227.85605
-129.70323,-74.8842,226.85605
-129.70323,-74.8842,225.85605
-129.70323,-74.8842,215.85605
-129.70323,-74.8842,214.85605
-128.64873,-74.27539,214.55075
-128.64873,-74.27539,213.55075
-128.64873,-74.27539,212.55075
-129.70323,-74.8842,210.85605
-129.70323,-74.8842,209.85605
-129.70323,-74.8842,208.85605
-129.70323,-74.8842,207.85605
-129.70323,-74.8842,206.85605
-129.70323,-74.8842,205.85605
-129.70323,-74.8842,204.85605
-129.70323,-74.8842,203.85605
-129.70323,-74.8842,202.85605
-129.70323,-74.8842,201.85605
-129.70323,-74.8842,200.85605
-129.70323,-74.8842,199.85605
-129.70323,-74.8842,198.85605
-129.70323,-74.8842,197.85605
-129.70323,-74.8842,196.85605
-128.64873,-74.27539,196.55075
-128.64873,-74.27539,195.55075
-128.64873,-74.27539,194.55075
-128.64873,-74.27539,193.55075
-128.64873,-74.27539,192.55075
-128.64873,-74.27539,191.55075
-129.70323,-74.8842,189.85605
-128.64873,-74.27539,189.55075
-128.64873,-74.27539,188.55075
-128.64873,-74.27539,187.55075
-128.64873,-74.27539,186.55075
-128.64873,-74.27539,185.55075
-128.64873,-74.27539,184.55075
-128.64873,-74.27539,183.55075
-128.64873,-74.27539,182.55075
-128.64873,-74.27539,181.55075
-128.64873,-74.27539,180.55075
-128.64873,-74.27539,179.55075
-128.64873,-74.27539,178.55075
-128.64873,-74.27539,177.55075
-128.64873,-74.27539,176.55075
-128.64873,-74.27539,175.55075
-128.64873,-74.27539,174.55075
-128.64873,-74.27539,173.55075
-128.64873,-74.27539,172.55075
-128.64873,-74.27539,171.55075
-128.64873,-74.27539,170.55075
-128.64873,-74.27539,169.55075
-128.64873,-74.27539,168.55075
-128.64873,-74.27539,167.55075
-128.64873,-74.27539,166.55075
-128.64873,-74.27539,165.55075
-128.64873,-74.27539,164.55075
-128.64873,-74.27539,163.55075
-128.64873,-74.27539,162.55075
-128.64873,-74.27539,161.55075
-128.64873,-74.27539,160.55075
-128.64873,-74.27539,149.55075
-128.64873,-74.27539,148.55075
-128.64873,-74.27539,147.55075
-128.64873,-74.27539,146.55075
-128.64873,-74.27539,145.55075
-128.64873,-74.27539,144.55075
-128.64873,-74.27539,143.55075
-127.59423,-73.66657,143.24547
-127.59423,-73.66657,142.24547
-127.59423,-73.66657,141.24547
-127.59423,-73.66657,140.24547
-127.59423,-73.66657,139.24547
-127.59423,-73.66657,138.24547
-127.59423,-73.66657,137.24547
-127.59423,-73.66657,136.24547
-127.59423,-73.66657,135.24547
-127.59423,-73.66657,134.24547
-127.59423,-73.66657,133.24547
-127.59423,-73.66657,132.24547
-127.59423,-73.66657,131.24547
-127.59423,-73.66657,130.24547
-126.53974,-73.05776,129.94019
-127.59423,-73.66657,128.24547
-127.59423,-73.66657,127.24547
-127.59423,-73.66657,126.24547
-127.59423,-73.66657,125.24547
-127.59423,-73.66657,124.24547
-126.53974,-73.05776,123.94018
-126.53974,-73.05776,122.94018
-126.53974,-73.05776,121.94018
-127.59423,-73.66657,120.24547
-126.53974,-73.05776,119.94018
-126.53974,-73.05776,118.94018
-126.53974,-73.05776,117.94018
-126.53974,-73.05776,116.94018
-126.53974,-73.05776,115.94018
-126.53974,-73.05776,114.94018
-126.53974,-73.05776,113.94018
-126.53974,-73.05776,112.94018
-126.53974,-73.05776,111.94018
-126.53974,-73.05776,110.94018
-126.53974,-73.05776,109.94018
-126.53974,-73.05776,108.94018
-126.53974,-73.05776,107.94018
-126.53974,-73.05776,106.94018
-126.53974,-73.05776,105.94018
-126.53974,-73.05776,104.94018
-126.53974,-73.05776,103.94018
-126.53974,-73.05776,102.94018
-126.53974,-73.05776,101.94018
-126.53974,-73.05776,100.94018
-126.53974,-73.05776,99.94018
-126.53974,-73.05776,98.94018
-126.53974,-73.05776,97.94018
-126.53974,-73.05776,96.94018
-126.53974,-73.05776,95.94018
-126.53974,-73.05776,94.94018
-126.53974,-73.05776,93.94018
-125.48524,-72.448944,93.63489
-125.48524,-72.448944,92.63489
-125.48524,-72.448944,91.63489
-125.48524,-72.448944,90.63489
-125.48524,-72.448944,89.63489
-125.48524,-72.448944,88.63489
-125.48524,-72.448944,87.63489
-125.48524,-72.448944,86.63489
-125.48524,-72.448944,85.63489
-124.43075,-71.84013,85.3296
-124.43075,-71.84013,84.3296
-125.48524,-72.448944,82.63489
-125.48524,-72.448944,81.63489
-125.48524,-72.448944,80.63489
-125.48524,-72.448944,79.63489
-125.48524,-72.448944,78.63489
-125.48524,-72.448944,77.63489
-124.43075,-71.84013,77.3296
-124.43075,-71.84013,76.3296
-124.43075,-71.84013,75.3296
-124.43075,-71.84013,74.3296
-124.43075,-71.84013,73.3296
-124.43075,-71.84013,72.3296
-124.43075,-71.84013,71.3296
-124.43075,-71.84013,70.3296
-124.43075,-71.84013,54.329597
-124.43075,-71.84013,53.329597
-124.43075,-71.84013,52.329597
-124.43075,-71.84013,51.329597
-124.43075,-71.84013,50.329597
-124.43075,-71.84013,49.329597
-124.43075,-71.84013,48.329597
-124.43075,-71.84013,47.329597
-9.49048,-5.479332,81.05291
-9.49048,-5.479332,80.05291
-8.435983,-4.8705173,79.74762
-6.326987,-3.652888,80.13704
-6.326987,-3.652888,79.13704
-5.272489,-3.0440736,78.83174
-4.2179914,-2.4352586,78.52645
-3.1634934,-1.826444,78.22116
-2.1089957,-1.2176293,77.91587
-2.1089957,-1.2176293,76.91587
-1.0544978,-0.60881466,76.61058
0.0,0.0,76.30529
-1.0544978,-0.60881466,74.61058
0.0,0.0,74.30529
0.0,0.0,73.30529
1.0544978,0.60881466,73.0
2.1089957,1.2176293,72.69471
2.1089957,1.2176293,71.69471
3.1634934,1.826444,71.38942
3.1634934,1.826444,70.38942
3.1634934,1.826444,69.38942
7.3814845,4.2617025,71.16826
9.49048,5.479332,71.55767
10.544978,6.088147,71.25238
10.544978,6.088147,70.25238
10.544978,6.088147,69.25238
10.544978,6.088147,68.25238
11.599476,6.6969614,67.94709
11.599476,6.6969614,66.94709
11.599476,6.6969614,65.94709
12.653974,7.305776,65.6418
13.708471,7.914591,65.33651
14.762969,8.523405,65.03122
14.762969,8.523405,64.03122
14.762969,8.523405,63.03122
14.762969,8.523405,62.03122
14.762969,8.523405,61.03122
14.762969,8.523405,60.03122
14.762969,8.523405,59.03122
14.762969,8.523405,58.03122
14.762969,8.523405,57.03122
15.817468,9.13222,56.72593
15.817468,9.13222,55.72593
15.817468,9.13222,54.72593
16.871965,9.7410345,54.42064
16.871965,9.7410345,53.42064
15.817468,9.13222,51.72593
15.817468,9.13222,50.72593
12.653974,7.305776,47.6418
12.653974,7.305776,46.6418
11.599476,6.6969614,44.947094
11.599476,6.6969614,43.947094
11.599476,6.6969614,42.947094
11.599476,6.6969614,41.947094
12.653974,7.305776,41.6418
12.653974,7.305776,40.6418
12.653974,7.305776,39.6418
18.98096,10.958664,42.81006
18.98096,10.958664,41.81006
23.198952,13.393923,43.588894
23.198952,13.393923,42.588894
27.416943,15.829182,44.36773
27.416943,15.829182,43.36773
30.580439,17.655626,44.45186
31.634935,18.26444,44.14657
32.689434,18.873255,43.841278
32.689434,18.873255,42.841278
33.74393,19.482069,42.535988
33.74393,19.482069,41.535988
33.74393,19.482069,40.535988
33.74393,19.482069,39.535988
33.74393,19.482069,38.535988
32.689434,18.873255,36.841278
32.689434,18.873255,35.841278
32.689434,18.873255,34.841278
32.689434,18.873255,33.841278
32.689434,18.873255,32.841278
32.689434,18.873255,31.841278
32.689434,18.873255,30.841278
32.689434,18.873255,29.841278
31.634935,18.26444,28.146568
31.634935,18.26444,27.146568
31.634935,18.26444,26.146568
33.74393,19.482069,26.535988
32.689434,18.873255,24.841278
33.74393,19.482069,24.535988
33.74393,19.482069,23.535988
33.74393,19.482069,22.535988
33.74393,19.482069,21.535988
33.74393,19.482069,20.535988
33.74393,19.482069,19.535988
33.74393,19.482069,18.535988
32.689434,18.873255,16.841278
32.689434,18.873255,15.841278
32.689434,18.873255,14.841278
32.689434,18.873255,13.841278
32.689434,18.873255,12.841278
32.689434,18.873255,11.841278
33.74393,19.482069,11.535988
33.74393,19.482069,10.535988
32.689434,18.873255,8.841278
32.689434,18.873255,7.841278
32.689434,18.873255,6.841278
32.689434,18.873255,5.841278
32.689434,18.873255,4.841278
32.689434,18.873255,3.841278
32.689434,18.873255,2.841278
32.689434,18.873255,1.8412781
33.74393,19.482069,1.5359879
33.74393,19.482069,0.53598785
35.852924,20.699697,0.9254055
39.01642,22.526142,2.009533
39.01642,22.526142,1.0095329
54.833885,31.658363,5.430172
53.77939,31.04955,3.7354622
53.77939,31.04955,2.7354622
57.99738,33.484806,4.5143013
57.99738,33.484806,3.5143013
62.215374,35.920067,5.2931366
62.215374,35.920067,4.2931366
65.37887,37.74651,5.377266
65.37887,37.74651,4.377266
69.596855,40.181767,6.156101
69.596855,40.181767,5.156101
72.76035,42.008213,6.2402306
73.81485,42.617027,5.9349403
78.03284,45.052284,6.7137756
79.08733,45.6611,6.4084854
79.08733,45.6611,5.4084854
83.30533,48.096363,7.1873207
84.359825,48.705177,6.8820305
87.523315,50.53162,7.96616
// image  042
-126.62753,-82.23289,285.16135
-126.62753,-82.23289,278.16135
-126.62753,-82.23289,277.16135
-126.62753,-82.23289,276.16135
-125.60634,-81.56971,275.85605
-125.60634,-81.56971,274.85605
-125.60634,-81.56971,273.85605
-125.60634,-81.56971,272.85605
-126.62753,-82.23289,271.16135
-126.62753,-82.23289,270.16135
-125.60634,-81.56971,269.85605
-125.60634,-81.56971,268.85605
-125.60634,-81.56971,267.85605
-125.60634,-81.56971,266.85605
-125.60634,-81.56971,265.85605
-126.62753,-82.23289,264.16135
-126.62753,-82.23289,263.16135
-126.62753,-82.23289,262.16135
-126.62753,-82.23289,261.16135
-125.60634,-81.56971,260.85605
-125.60634,-81.56971,232.85605
-125.60634,-81.56971,231.85605
-125.60634,-81.56971,230.85605
-125.60634,-81.56971,229.85605
-125.60634,-81.56971,228.85605
-125.60634,-81.56971,227.85605
-125.60634,-81.56971,226.85605
-125.60634,-81.56971,225.85605
-125.60634,-81.56971,215.85605
-125.60634,-81.56971,214.85605
-125.60634,-81.56971,213.85605
-124.58515,-80.90655,213.55075
-125.60634,-81.56971,211.85605
-125.60634,-81.56971,210.85605
-125.60634,-81.56971,209.85605
-125.60634,-81.56971,208.85605
-125.60634,-81.56971,207.85605
-125.60634,-81.56971,206.85605
-125.60634,-81.56971,205.85605
-125.60634,-81.56971,204.85605
-125.60634,-81.56971,203.85605
-125.60634,-81.56971,202.85605
-125.60634,-81.56971,201.85605
-125.60634,-81.56971,200.85605
-125.60634,-81.56971,199.85605
-125.60634,-81.56971,198.85605
-125.60634,-81.56971,197.85605
-125.60634,-81.56971,196.85605
-125.60634,-81.56971,195.85605
-125.60634,-81.56971,194.85605
-125.60634,-81.56971,193.85605
-124.58515,-80.90655,193.55075
-124.58515,-80.90655,192.55075
-124.58515,-80.90655,191.55075
-125.60634,-81.56971,189.85605
-124.58515,-80.90655,189.55075
-124.58515,-80.90655,188.55075
-124.58515,-80.90655,187.55075
-124.58515,-80.90655,186.55075
-124.58515,-80.90655,185.55075
-124.58515,-80.90655,184.55075
-124.58515,-80.90655,183.55075
-124.58515,-80.90655,182.55075
-124.58515,-80.90655,181.55075
-124.58515,-80.90655,180.55075
-124.58515,-80.90655,179.55075
-124.58515,-80.90655,178.55075
-124.58515,-80.90655,177.55075
-124.58515,-80.90655,176.55075
-124.58515,-80.90655,175.55075
-124.58515,-80.90655,174.55075
-124.58515,-80.90655,173.55075
-124.58515,-80.90655,172.55075
-124.58515,-80.90655,171.55075
-124.58515,-80.90655,170.55075
-124.58515,-80.90655,169.55075
-124.58515,-80.90655,168.55075
-124.58515,-80.90655,167.55075
-124.58515,-80.90655,166.55075
-124.58515,-80.90655,165.55075
-124.58515,-80.90655,164.55075
-124.58515,-80.90655,163.55075
-124.58515,-80.90655,162.55075
-124.58515,-80.90655,161.55075
-124.58515,-80.90655,160.55075
-124.58515,-80.90655,149.55075
-124.58515,-80.90655,148.55075
-124.58515,-80.90655,147.55075
-124.58515,-80.90655,146.55075
-124.58515,-80.90655,145.55075
-124.58515,-80.90655,144.55075
-124.58515,-80.90655,143.55075
-123.56396,-80.24338,143.24547
-123.56396,-80.24338,142.24547
-123.56396,-80.24338,141.24547
-123.56396,-80.24338,140.24547
-123.56396,-80.24338,139.24547
-123.56396,-80.24338,138.24547
-123.56396,-80.24338,137.24547
-123.56396,-80.24338,136.24547
-123.56396,-80.24338,135.24547
-123.56396,-80.24338,134.24547
-123.56396,-80.24338,133.24547
-123.56396,-80.24338,132.24547
-123.56396,-80.24338,131.24547
-123.56396,-80.24338,130.24547
-122.54278,-79.580215,129.94019
-122.54278,-79.580215,128.94019
-123.56396,-80.24338,127.24547
-122.54278,-79.580215,126.94018
-122.54278,-79.580215,125.94018
-122.54278,-79.580215,124.94018
-122.54278,-79.580215,123.94018
-122.54278,-79.580215,122.94018
-122.54278,-79.580215,121.94018
-122.54278,-79.580215,120.94018
-122.54278,-79.580215,119.94018
-122.54278,-79.580215,118.94018
-122.54278,-79.580215,117.94018
-122.54278,-79.580215,116.94018
-122.54278,-79.580215,115.94018
-122.54278,-79.580215,114.94018
-122.54278,-79.580215,113.94018
-122.54278,-79.580215,112.94018
-122.54278,-79.580215,111.94018
-122.54278,-79.580215,110.94018
-122.54278,-79.580215,109.94018
-122.54278,-79.580215,108.94018
-122.54278,-79.580215,107.94018
-122.54278,-79.580215,106.94018
-122.54278,-79.580215,105.94018
-122.54278,-79.580215,104.94018
-122.54278,-79.580215,103.94018
-122.54278,-79.580215,102.94018
-122.54278,-79.580215,101.94018
-122.54278,-79.580215,100.94018
-122.54278,-79.580215,99.94018
-122.54278,-79.580215,98.94018
-122.54278,-79.580215,97.94018
-122.54278,-79.580215,96.94018
-122.54278,-79.580215,95.94018
-122.54278,-79.580215,94.94018
-122.54278,-79.580215,93.94018
-121.521576,-78.91704,93.63489
-121.521576,-78.91704,92.63489
-121.521576,-78.91704,91.63489
-121.521576,-78.91704,90.63489
-121.521576,-78.91704,89.63489
-121.521576,-78.91704,88.63489
-121.521576,-78.91704,87.63489
-121.521576,-78.91704,86.63489
-120.5004,-78.253876,86.3296
-120.5004,-78.253876,85.3296
-120.5004,-78.253876,84.3296
-121.521576,-78.91704,82.63489
-121.521576,-78.91704,81.63489
-121.521576,-78.91704,80.63489
-121.521576,-78.91704,79.63489
-121.521576,-78.91704,78.63489
-121.521576,-78.91704,77.63489
-120.5004,-78.253876,77.3296
-120.5004,-78.253876,76.3296
-120.5004,-78.253876,75.3296
-120.5004,-78.253876,74.3296
-120.5004,-78.253876,73.3296
-120.5004,-78.253876,72.3296
-120.5004,-78.253876,71.3296
-120.5004,-78.253876,70.3296
-120.5004,-78.253876,54.329597
-120.5004,-78.253876,53.329597
-120.5004,-78.253876,52.329597
-120.5004,-78.253876,51.329597
-120.5004,-78.253876,50.329597
-120.5004,-78.253876,49.329597
-120.5004,-78.253876,48.329597
-120.5004,-78.253876,47.329597
-120.5004,-78.253876,46.329597
-120.5004,-78.253876,45.329597
-120.5004,-78.253876,44.329597
-120.5004,-78.253876,43.329597
-30.635695,-19.895054,95.46401
-30.635695,-19.895054,94.46401
-29.614504,-19.231886,93.15872
-29.614504,-19.231886,92.15872
-13.275467,-8.621189,83.27407
-13.275467,-8.621189,82.27407
-10.211898,-6.6316843,82.3582
-10.211898,-6.6316843,81.3582
-8.1695175,-5.3053474,81.74762
-8.1695175,-5.3053474,80.74762
-7.148328,-4.6421785,80.44233
-6.1271386,-3.9790103,80.13704
-6.1271386,-3.9790103,79.13704
-5.105949,-3.3158422,78.83174
-3.0635693,-1.9895052,79.22116
-3.0635693,-1.9895052,78.22116
-2.0423794,-1.3263369,77.91587
-2.0423794,-1.3263369,76.91587
0.0,0.0,77.30529
0.0,0.0,76.30529
-1.0211897,-0.66316843,74.61058
0.0,0.0,74.30529
0.0,0.0,73.30529
1.0211897,0.66316843,73.0
1.0211897,0.66316843,72.0
2.0423794,1.3263369,71.69471
3.0635693,1.9895052,71.38942
3.0635693,1.9895052,70.38942
3.0635693,1.9895052,69.38942
7.148328,4.6421785,71.16826
9.190708,5.968516,71.55767
9.190708,5.968516,70.55767
10.211898,6.6316843,70.25238
10.211898,6.6316843,69.25238
10.211898,6.6316843,68.25238
11.233087,7.2948523,67.94709
11.233087,7.2948523,66.94709
11.233087,7.2948523,65.94709
12.254277,7.9580207,65.6418
13.275467,8.621189,65.33651
13.275467,8.621189,64.33651
14.296656,9.284357,64.03122
14.296656,9.284357,63.03122
14.296656,9.284357,62.03122
14.296656,9.284357,61.03122
14.296656,9.284357,60.03122
14.296656,9.284357,59.03122
14.296656,9.284357,58.03122
15.317847,9.947527,57.72593
15.317847,9.947527,56.72593
16.339035,10.610695,56.42064
16.339035,10.610695,55.42064
16.339035,10.610695,54.42064
16.339035,10.610695,53.42064
15.317847,9.947527,51.72593
15.317847,9.947527,50.72593
12.254277,7.9580207,47.6418
12.254277,7.9580207,46.6418
12.254277,7.9580207,45.6418
11.233087,7.2948523,43.947094
11.233087,7.2948523,42.947094
11.233087,7.2948523,41.947094
11.233087,7.2948523,40.947094
11.233087,7.2948523,39.947094
12.254277,7.9580207,39.6418
18.381416,11.937032,42.81006
18.381416,11.937032,41.81006
22.466173,14.5897045,43.588894
22.466173,14.5897045,42.588894
29.614504,19.231886,45.45186
30.635695,19.895054,45.14657
30.635695,19.895054,44.14657
32.67807,21.22139,44.535988
33.69926,21.884558,44.230698
34.72045,22.547726,43.925407
34.72045,22.547726,42.925407
34.72045,22.547726,41.925407
34.72045,22.547726,40.925407
34.72045,22.547726,39.925407
34.72045,22.547726,38.925407
33.69926,21.884558,37.230698
33.69926,21.884558,36.230698
33.69926,21.884558,35.230698
33.69926,21.884558,34.230698
33.69926,21.884558,33.230698
33.69926,21.884558,32.230698
33.69926,21.884558,31.230696
32.67807,21.22139,29.535988
32.67807,21.22139,28.535988
32.67807,21.22139,27.535988
32.67807,21.22139,26.535988
33.69926,21.884558,26.230696
33.69926,21.884558,25.230696
34.72045,22.547726,24.925406
34.72045,22.547726,23.925406
34.72045,22.547726,22.925406
34.72045,22.547726,21.925406
34.72045,22.547726,20.925406
34.72045,22.547726,19.925406
34.72045,22.547726,18.925406
34.72045,22.547726,17.925406
34.72045,22.547726,16.925406
34.72045,22.547726,15.9254055
33.69926,21.884558,14.230696
33.69926,21.884558,13.230696
34.72045,22.547726,12.9254055
34.72045,22.547726,11.9254055
33.69926,21.884558,10.230696
33.69926,21.884558,9.230696
34.72045,22.547726,8.9254055
34.72045,22.547726,7.9254055
34.72045,22.547726,6.9254055
34.72045,22.547726,5.9254055
34.72045,22.547726,4.9254055
34.72045,22.547726,3.9254055
34.72045,22.547726,2.9254055
34.72045,22.547726,1.9254055
34.72045,22.547726,0.9254055
37.78402,24.537231,2.009533
38.80521,25.2004,1.7042427
52.080677,33.82159,3.7354622
54.12306,35.147926,4.1248817
56.165436,36.474262,4.5143013
56.165436,36.474262,3.5143013
60.2502,39.126938,5.2931366
60.2502,39.126938,4.2931366
63.313766,41.116444,5.377266
64.33495,41.77961,5.0719757
67.39852,43.769115,6.156101
67.39852,43.769115,5.156101
70.4621,45.75862,6.2402306
71.483284,46.42179,5.9349403
75.56804,49.074463,6.7137756
76.58923,49.73763,6.4084854
76.58923,49.73763,5.4084854
80.673996,52.39031,7.1873207
81.69518,53.053474,6.8820305
84.75875,55.04298,7.96616
// image  043
-122.15026,-88.747345,285.16135
-122.15026,-88.747345,278.16135
-122.15026,-88.747345,277.16135
-122.15026,-88.747345,276.16135
-121.16517,-88.03164,275.85605
-121.16517,-88.03164,274.85605
-121.16517,-88.03164,273.85605
-121.16517,-88.03164,272.85605
-122.15026,-88.747345,271.16135
-122.15026,-88.747345,270.16135
-122.15026,-88.747345,269.16135
-121.16517,-88.03164,268.85605
-121.16517,-88.03164,267.85605
-121.16517,-88.03164,266.85605
-121.16517,-88.03164,265.85605
-122.15026,-88.747345,264.16135
-122.15026,-88.747345,263.16135
-122.15026,-88.747345,262.16135
-122.15026,-88.747345,261.16135
-122.15026,-88.747345,260.16135
-121.16517,-88.03164,232.85605
-121.16517,-88.03164,231.85605
-121.16517,-88.03164,230.85605
-121.16517,-88.03164,229.85605
-121.16517,-88.03164,228.85605
-121.16517,-88.03164,227.85605
-121.16517,-88.03164,226.85605
-121.16517,-88.03164,225.85605
-121.16517,-88.03164,215.85605
-121.16517,-88.03164,214.85605
-120.18009,-87.31594,214.55075
-120.18009,-87.31594,213.55075
-120.18009,-87.31594,212.55075
-121.16517,-88.03164,210.85605
-121.16517,-88.03164,209.85605
-121.16517,-88.03164,208.85605
-121.16517,-88.03164,207.85605
-121.16517,-88.03164,206.85605
-121.16517,-88.03164,205.85605
-121.16517,-88.03164,204.85605
-121.16517,-88.03164,203.85605
-121.16517,-88.03164,202.85605
-121.16517,-88.03164,201.85605
-121.16517,-88.03164,200.85605
-121.16517,-88.03164,199.85605
-121.16517,-88.03164,198.85605
-121.16517,-88.03164,197.85605
-121.16517,-88.03164,196.85605
-121.16517,-88.03164,195.85605
-121.16517,-88.03164,194.85605
-121.16517,-88.03164,193.85605
-120.18009,-87.31594,193.55075
-120.18009,-87.31594,192.55075
-120.18009,-87.31594,191.55075
-121.16517,-88.03164,189.85605
-120.18009,-87.31594,189.55075
-120.18009,-87.31594,188.55075
-120.18009,-87.31594,187.55075
-120.18009,-87.31594,186.55075
-120.18009,-87.31594,185.55075
-120.18009,-87.31594,184.55075
-120.18009,-87.31594,183.55075
-120.18009,-87.31594,182.55075
-120.18009,-87.31594,181.55075
-120.18009,-87.31594,180.55075
-120.18009,-87.31594,179.55075
-120.18009,-87.31594,178.55075
-120.18009,-87.31594,177.55075
-120.18009,-87.31594,176.55075
-120.18009,-87.31594,175.55075
-120.18009,-87.31594,174.55075
-120.18009,-87.31594,173.55075
-120.18009,-87.31594,172.55075
-120.18009,-87.31594,171.55075
-120.18009,-87.31594,170.55075
-120.18009,-87.31594,169.55075
-120.18009,-87.31594,168.55075
-120.18009,-87.31594,167.55075
-120.18009,-87.31594,166.55075
-120.18009,-87.31594,165.55075
-120.18009,-87.31594,164.55075
-120.18009,-87.31594,163.55075
-120.18009,-87.31594,162.55075
-120.18009,-87.31594,161.55075
-120.18009,-87.31594,160.55075
-120.18009,-87.31594,150.55075
-120.18009,-87.31594,149.55075
-120.18009,-87.31594,148.55075
-120.18009,-87.31594,147.55075
-120.18009,-87.31594,146.55075
-120.18009,-87.31594,145.55075
-120.18009,-87.31594,144.55075
-120.18009,-87.31594,143.55075
-119.19501,-86.60023,143.24547
-119.19501,-86.60023,142.24547
-119.19501,-86.60023,141.24547
-119.19501,-86.60023,140.24547
-119.19501,-86.60023,139.24547
-119.19501,-86.60023,138.24547
-119.19501,-86.60023,137.24547
-119.19501,-86.60023,136.24547
-119.19501,-86.60023,135.24547
-119.19501,-86.60023,134.24547
-119.19501,-86.60023,133.24547
-119.19501,-86.60023,132.24547
-119.19501,-86.60023,131.24547
-119.19501,-86.60023,130.24547
-118.20993,-85.88453,129.94019
-119.19501,-86.60023,128.24547
-119.19501,-86.60023,127.24547
-119.19501,-86.60023,126.24547
-119.19501,-86.60023,125.24547
-118.20993,-85.88453,124.94018
-118.20993,-85.88453,123.94018
-118.20993,-85.88453,122.94018
-118.20993,-85.88453,121.94018
-119.19501,-86.60023,120.24547
-118.20993,-85.88453,119.94018
-118.20993,-85.88453,118.94018
-118.20993,-85.88453,117.94018
-118.20993,-85.88453,116.94018
-118.20993,-85.88453,115.94018
-118.20993,-85.88453,114.94018
-118.20993,-85.88453,113.94018
-118.20993,-85.88453,112.94018
-118.20993,-85.88453,111.94018
-118.20993,-85.88453,110.94018
-118.20993,-85.88453,109.94018
-118.20993,-85.88453,108.94018
-118.20993,-85.88453,107.94018
-118.20993,-85.88453,106.94018
-118.20993,-85.88453,105.94018
-118.20993,-85.88453,104.94018
-118.20993,-85.88453,103.94018
-118.20993,-85.88453,102.94018
-118.20993,-85.88453,101.94018
-118.20993,-85.88453,100.94018
-118.20993,-85.88453,99.94018
-118.20993,-85.88453,98.94018
-118.20993,-85.88453,97.94018
-118.20993,-85.88453,96.94018
-118.20993,-85.88453,95.94018
-118.20993,-85.88453,94.94018
-118.20993,-85.88453,93.94018
-117.224846,-85.16882,93.63489
-117.224846,-85.16882,92.63489
-117.224846,-85.16882,91.63489
-117.224846,-85.16882,90.63489
-117.224846,-85.16882,89.63489
-117.224846,-85.16882,88.63489
-117.224846,-85.16882,87.63489
-117.224846,-85.16882,86.63489
-116.23977,-84.453125,86.3296
-116.23977,-84.453125,85.3296
-116.23977,-84.453125,84.3296
-116.23977,-84.453125,83.3296
-117.224846,-85.16882,81.63489
-117.224846,-85.16882,80.63489
-117.224846,-85.16882,79.63489
-117.224846,-85.16882,78.63489
-117.224846,-85.16882,77.63489
-116.23977,-84.453125,77.3296
-116.23977,-84.453125,76.3296
-116.23977,-84.453125,75.3296
-116.23977,-84.453125,74.3296
-116.23977,-84.453125,73.3296
-116.23977,-84.453125,72.3296
-116.23977,-84.453125,71.3296
-116.23977,-84.453125,70.3296
-116.23977,-84.453125,54.329597
-116.23977,-84.453125,53.329597
-116.23977,-84.453125,52.329597
-116.23977,-84.453125,51.329597
-116.23977,-84.453125,50.329597
-116.23977,-84.453125,49.329597
-116.23977,-84.453125,48.329597
-28.5674,-20.755428,96.15872
-28.5674,-20.755428,95.15872
-27.582315,-20.039722,94.85343
-26.597233,-19.324018,94.54814
-26.597233,-19.324018,93.54814
-25.61215,-18.608315,93.24285
-21.67182,-15.745497,91.02169
-21.67182,-15.745497,90.02169
-13.791158,-10.019861,85.57936
-13.791158,-10.019861,84.57936
-12.806075,-9.304157,84.27407
-12.806075,-9.304157,83.27407
-11.820992,-8.588452,82.96878
-10.83591,-7.8727484,82.66349
-8.865745,-6.44134,83.05291
-8.865745,-6.44134,82.05291
-7.880662,-5.725635,81.74762
-7.880662,-5.725635,80.74762
-5.910496,-4.294226,81.13704
-5.910496,-4.294226,80.13704
-4.9254136,-3.5785222,79.83174
-4.9254136,-3.5785222,78.83174
-3.940331,-2.8628175,78.52645
-1.9701655,-1.4314088,78.91587
-0.98508275,-0.7157044,78.61058
-0.98508275,-0.7157044,77.61058
0.0,0.0,77.30529
-0.98508275,-0.7157044,75.61058
-0.98508275,-0.7157044,74.61058
0.0,0.0,74.30529
0.0,0.0,73.30529
0.0,0.0,72.30529
1.9701655,1.4314088,72.69471
1.9701655,1.4314088,71.69471
2.955248,2.147113,71.38942
2.955248,2.147113,70.38942
2.955248,2.147113,69.38942
6.895579,5.0099306,71.16826
8.865745,6.44134,71.55767
8.865745,6.44134,70.55767
9.850827,7.1570444,70.25238
9.850827,7.1570444,69.25238
9.850827,7.1570444,68.25238
10.83591,7.8727484,67.94709
10.83591,7.8727484,66.94709
10.83591,7.8727484,65.94709
11.820992,8.588452,65.6418
12.806075,9.304157,65.33651
13.791158,10.019861,65.03122
13.791158,10.019861,64.03122
13.791158,10.019861,63.03122
13.791158,10.019861,62.03122
13.791158,10.019861,61.03122
14.776241,10.735566,60.72593
14.776241,10.735566,59.72593
14.776241,10.735566,58.72593
14.776241,10.735566,57.72593
14.776241,10.735566,56.72593
15.761324,11.45127,56.42064
15.761324,11.45127,55.42064
15.761324,11.45127,54.42064
15.761324,11.45127,53.42064
15.761324,11.45127,52.42064
14.776241,10.735566,50.72593
14.776241,10.735566,49.72593
11.820992,8.588452,46.6418
11.820992,8.588452,45.6418
10.83591,7.8727484,43.947094
10.83591,7.8727484,42.947094
10.83591,7.8727484,41.947094
10.83591,7.8727484,40.947094
10.83591,7.8727484,39.947094
11.820992,8.588452,39.6418
17.73149,12.88268,42.81006
17.73149,12.88268,41.81006
21.67182,15.745497,43.588894
21.67182,15.745497,42.588894
25.61215,18.608315,44.36773
29.552483,21.471132,45.14657
29.552483,21.471132,44.14657
33.492813,24.333948,45.925407
33.492813,24.333948,44.925407
33.492813,24.333948,43.925407
34.477898,25.049656,43.620117
34.477898,25.049656,42.620117
34.477898,25.049656,41.620117
33.492813,24.333948,39.925407
33.492813,24.333948,38.925407
33.492813,24.333948,37.925407
33.492813,24.333948,36.925407
33.492813,24.333948,35.925407
33.492813,24.333948,34.925407
33.492813,24.333948,33.925407
33.492813,24.333948,32.925407
33.492813,24.333948,31.925406
33.492813,24.333948,30.925406
33.492813,24.333948,29.925406
33.492813,24.333948,28.925406
33.492813,24.333948,27.925406
33.492813,24.333948,26.925406
34.477898,25.049656,26.620115
34.477898,25.049656,25.620115
34.477898,25.049656,24.620115
34.477898,25.049656,23.620115
34.477898,25.049656,22.620115
34.477898,25.049656,21.620115
34.477898,25.049656,20.620115
34.477898,25.049656,19.620115
34.477898,25.049656,18.620115
34.477898,25.049656,17.620115
34.477898,25.049656,16.620115
34.477898,25.049656,15.620115
33.492813,24.333948,13.9254055
33.492813,24.333948,12.9254055
33.492813,24.333948,11.9254055
33.492813,24.333948,10.9254055
33.492813,24.333948,9.9254055
35.46298,25.76536,10.314823
35.46298,25.76536,9.314823
35.46298,25.76536,8.314823
34.477898,25.049656,6.6201153
34.477898,25.049656,5.6201153
34.477898,25.049656,4.6201153
34.477898,25.049656,3.6201153
34.477898,25.049656,2.6201153
34.477898,25.049656,1.6201153
35.46298,25.76536,1.3148232
37.433144,27.196768,1.7042427
51.2243,37.21663,5.430172
50.23922,36.500927,3.7354622
50.23922,36.500927,2.7354622
54.17955,39.363743,4.5143013
54.17955,39.363743,3.5143013
57.1348,41.510857,4.598427
58.119884,42.226562,4.2931366
62.06021,45.08938,6.0719757
62.06021,45.08938,5.0719757
65.01546,47.23649,6.156101
65.01546,47.23649,5.156101
67.97071,49.383606,6.2402306
68.955795,50.09931,5.9349403
72.89612,52.962128,6.7137756
73.8812,53.67783,6.4084854
81.76186,59.403465,7.96616
// image  044
-117.338165,-95.0186,285.16135
-117.338165,-95.0186,278.16135
-117.338165,-95.0186,277.16135
-117.338165,-95.0186,276.16135
-116.391884,-94.25232,275.85605
-116.391884,-94.25232,274.85605
-116.391884,-94.25232,273.85605
-116.391884,-94.25232,272.85605
-117.338165,-95.0186,271.16135
-117.338165,-95.0186,270.16135
-117.338165,-95.0186,269.16135
-116.391884,-94.25232,268.85605
-116.391884,-94.25232,267.85605
-116.391884,-94.25232,266.85605
-116.391884,-94.25232,265.85605
-117.338165,-95.0186,264.16135
-117.338165,-95.0186,263.16135
-117.338165,-95.0186,262.16135
-117.338165,-95.0186,261.16135
-117.338165,-95.0186,260.16135
-116.391884,-94.25232,232.85605
-116.391884,-94.25232,231.85605
-116.391884,-94.25232,230.85605
-116.391884,-94.25232,229.85605
-116.391884,-94.25232,228.85605
-116.391884,-94.25232,227.85605
-116.391884,-94.25232,226.85605
-116.391884,-94.25232,225.85605
-115.44561,-93.486046,214.55075
-116.391884,-94.25232,212.85605
-116.391884,-94.25232,211.85605
-116.391884,-94.25232,210.85605
-116.391884,-94.25232,209.85605
-116.391884,-94.25232,208.85605
-116.391884,-94.25232,207.85605
-116.391884,-94.25232,206.85605
-116.391884,-94.25232,205.85605
-116.391884,-94.25232,204.85605
-116.391884,-94.25232,203.85605
-116.391884,-94.25232,202.85605
-116.391884,-94.25232,201.85605
-116.391884,-94.25232,200.85605
-116.391884,-94.25232,199.85605
-116.391884,-94.25232,198.85605
-116.391884,-94.25232,197.85605
-116.391884,-94.25232,196.85605
-116.391884,-94.25232,195.85605
-115.44561,-93.486046,195.55075
-115.44561,-93.486046,194.55075
-115.44561,-93.486046,193.55075
-115.44561,-93.486046,192.55075
-115.44561,-93.486046,191.55075
-116.391884,-94.25232,189.85605
-115.44561,-93.486046,189.55075
-115.44561,-93.486046,188.55075
-115.44561,-93.486046,187.55075
-115.44561,-93.486046,186.55075
-115.44561,-93.486046,185.55075
-115.44561,-93.486046,184.55075
-115.44561,-93.486046,183.55075
-115.44561,-93.486046,182.55075
-115.44561,-93.486046,181.55075
-115.44561,-93.486046,180.55075
-115.44561,-93.486046,179.55075
-115.44561,-93.486046,178.55075
-115.44561,-93.486046,177.55075
-115.44561,-93.486046,176.55075
-115.44561,-93.486046,175.55075
-115.44561,-93.486046,174.55075
-115.44561,-93.486046,173.55075
-115.44561,-93.486046,172.55075
-115.44561,-93.486046,171.55075
-115.44561,-93.486046,170.55075
-115.44561,-93.486046,169.55075
-115.44561,-93.486046,168.55075
-115.44561,-93.486046,167.55075
-115.44561,-93.486046,166.55075
-115.44561,-93.486046,165.55075
-115.44561,-93.486046,164.55075
-115.44561,-93.486046,163.55075
-115.44561,-93.486046,162.55075
-115.44561,-93.486046,161.55075
-115.44561,-93.486046,160.55075
-115.44561,-93.486046,148.55075
-115.44561,-93.486046,147.55075
-115.44561,-93.486046,146.55075
-115.44561,-93.486046,145.55075
-115.44561,-93.486046,144.55075
-115.44561,-93.486046,143.55075
-114.49933,-92.71976,143.24547
-114.49933,-92.71976,142.24547
-114.49933,-92.71976,141.24547
-114.49933,-92.71976,140.24547
-114.49933,-92.71976,139.24547
-114.49933,-92.71976,138.24547
-114.49933,-92.71976,137.24547
-114.49933,-92.71976,136.24547
-113.55306,-91.95348,135.94019
-114.49933,-92.71976,134.24547
-114.49933,-92.71976,133.24547
-114.49933,-92.71976,132.24547
-114.49933,-92.71976,131.24547
-114.49933,-92.71976,130.24547
-113.55306,-91.95348,129.94019
-113.55306,-91.95348,128.94019
-114.49933,-92.71976,127.24547
-113.55306,-91.95348,126.94018
-113.55306,-91.95348,125.94018
-113.55306,-91.95348,124.94018
-113.55306,-91.95348,123.94018
-113.55306,-91.95348,122.94018
-113.55306,-91.95348,121.94018
-113.55306,-91.95348,120.94018
-113.55306,-91.95348,119.94018
-113.55306,-91.95348,118.94018
-113.55306,-91.95348,117.94018
-113.55306,-91.95348,116.94018
-113.55306,-91.95348,115.94018
-113.55306,-91.95348,114.94018
-113.55306,-91.95348,113.94018
-113.55306,-91.95348,112.94018
-113.55306,-91.95348,111.94018
-113.55306,-91.95348,110.94018
-113.55306,-91.95348,109.94018
-113.55306,-91.95348,108.94018
-113.55306,-91.95348,107.94018
-113.55306,-91.95348,106.94018
-113.55306,-91.95348,105.94018
-113.55306,-91.95348,104.94018
-113.55306,-91.95348,103.94018
-113.55306,-91.95348,102.94018
-113.55306,-91.95348,101.94018
-113.55306,-91.95348,100.94018
-113.55306,-91.95348,99.94018
-113.55306,-91.95348,98.94018
-113.55306,-91.95348,97.94018
-113.55306,-91.95348,96.94018
-113.55306,-91.95348,95.94018
-113.55306,-91.95348,94.94018
-113.55306,-91.95348,93.94018
-112.60678,-91.1872,93.63489
-112.60678,-91.1872,92.63489
-112.60678,-91.1872,91.63489
-112.60678,-91.1872,90.63489
-112.60678,-91.1872,89.63489
-112.60678,-91.1872,88.63489
-112.60678,-91.1872,87.63489
-112.60678,-91.1872,86.63489
-111.660515,-90.42093,86.3296
-111.660515,-90.42093,85.3296
-111.660515,-90.42093,84.3296
-111.660515,-90.42093,83.3296
-112.60678,-91.1872,81.63489
-112.60678,-91.1872,80.63489
-111.660515,-90.42093,80.3296
-111.660515,-90.42093,79.3296
-112.60678,-91.1872,77.63489
-111.660515,-90.42093,77.3296
-111.660515,-90.42093,76.3296
-111.660515,-90.42093,75.3296
-111.660515,-90.42093,74.3296
-111.660515,-90.42093,73.3296
-111.660515,-90.42093,72.3296
-111.660515,-90.42093,71.3296
-111.660515,-90.42093,70.3296
-111.660515,-90.42093,69.3296
-111.660515,-90.42093,60.329597
-32.173367,-26.053486,100.68518
-32.173367,-26.053486,99.68518
-32.173367,-26.053486,98.68518
-31.22709,-25.287207,98.37988
-31.22709,-25.287207,97.37988
-30.280815,-24.52093,97.07459
-30.280815,-24.52093,96.07459
-30.280815,-24.52093,95.07459
-30.280815,-24.52093,94.07459
-29.334541,-23.75465,93.7693
-28.388266,-22.98837,93.46401
-28.388266,-22.98837,92.46401
-28.388266,-22.98837,91.46401
-22.710611,-18.390696,94.63227
-22.710611,-18.390696,93.63227
-21.764338,-17.624418,93.32698
-20.81806,-16.858137,93.02169
-20.81806,-16.858137,92.02169
-19.871786,-16.09186,91.7164
-19.871786,-16.09186,90.7164
-19.871786,-16.09186,89.7164
-13.247856,-10.727906,87.57936
-13.247856,-10.727906,86.57936
-13.247856,-10.727906,85.57936
-12.301581,-9.961627,85.27407
-12.301581,-9.961627,84.27407
-11.355306,-9.195348,83.96878
-10.40903,-8.429069,83.66349
-9.462755,-7.6627903,83.3582
-8.5164795,-6.896511,83.05291
-7.570204,-6.1302323,82.74762
-7.570204,-6.1302323,81.74762
-6.623928,-5.363953,81.44233
-5.677653,-4.597674,81.13704
-5.677653,-4.597674,80.13704
-4.7313776,-3.8313951,79.83174
-4.7313776,-3.8313951,78.83174
-4.7313776,-3.8313951,77.83174
-0.9462755,-0.76627904,79.61058
-0.9462755,-0.76627904,78.61058
-2.8388264,-2.298837,76.22116
-1.892551,-1.5325581,75.91587
-0.9462755,-0.76627904,75.61058
-0.9462755,-0.76627904,74.61058
-0.9462755,-0.76627904,73.61058
0.0,0.0,73.30529
0.0,0.0,72.30529
1.892551,1.5325581,72.69471
1.892551,1.5325581,71.69471
2.8388264,2.298837,71.38942
2.8388264,2.298837,70.38942
2.8388264,2.298837,69.38942
3.785102,3.0651162,69.08413
7.570204,6.1302323,70.86296
8.5164795,6.896511,70.55767
9.462755,7.6627903,70.25238
9.462755,7.6627903,69.25238
9.462755,7.6627903,68.25238
10.40903,8.429069,67.94709
10.40903,8.429069,66.94709
10.40903,8.429069,65.94709
11.355306,9.195348,65.6418
12.301581,9.961627,65.33651
13.247856,10.727906,65.03122
13.247856,10.727906,64.03122
13.247856,10.727906,63.03122
13.247856,10.727906,62.03122
14.194133,11.494185,61.72593
14.194133,11.494185,60.72593
14.194133,11.494185,59.72593
14.194133,11.494185,58.72593
14.194133,11.494185,57.72593
15.140408,12.260465,57.42064
15.140408,12.260465,56.42064
15.140408,12.260465,55.42064
15.140408,12.260465,54.42064
15.140408,12.260465,53.42064
15.140408,12.260465,52.42064
15.140408,12.260465,51.42064
14.194133,11.494185,49.72593
9.462755,7.6627903,45.252384
9.462755,7.6627903,44.252384
9.462755,7.6627903,43.252384
8.5164795,6.896511,41.557674
8.5164795,6.896511,40.557674
9.462755,7.6627903,40.252384
9.462755,7.6627903,39.252384
10.40903,8.429069,38.947094
11.355306,9.195348,38.6418
17.032959,13.793022,41.81006
20.81806,16.858137,43.588894
20.81806,16.858137,42.588894
24.603163,19.923254,44.36773
24.603163,19.923254,43.36773
28.388266,22.98837,45.14657
28.388266,22.98837,44.14657
32.173367,26.053486,45.925407
33.119644,26.819767,45.620117
33.119644,26.819767,44.620117
33.119644,26.819767,43.620117
33.119644,26.819767,42.620117
33.119644,26.819767,41.620117
34.065918,27.586044,41.314823
34.065918,27.586044,40.314823
34.065918,27.586044,39.314823
34.065918,27.586044,38.314823
34.065918,27.586044,37.314823
34.065918,27.586044,36.314823
34.065918,27.586044,35.314823
34.065918,27.586044,34.314823
34.065918,27.586044,33.314823
34.065918,27.586044,32.314823
33.119644,26.819767,30.620115
33.119644,26.819767,29.620115
34.065918,27.586044,29.314823
34.065918,27.586044,28.314823
34.065918,27.586044,27.314823
34.065918,27.586044,26.314823
35.01219,28.352324,26.009533
35.01219,28.352324,25.009533
35.01219,28.352324,24.009533
35.01219,28.352324,23.009533
35.01219,28.352324,22.009533
35.01219,28.352324,21.009533
35.01219,28.352324,20.009533
34.065918,27.586044,18.314823
34.065918,27.586044,17.314823
34.065918,27.586044,16.314823
34.065918,27.586044,15.314823
34.065918,27.586044,14.314823
34.065918,27.586044,13.314823
34.065918,27.586044,12.314823
34.065918,27.586044,11.314823
34.065918,27.586044,10.314823
34.065918,27.586044,9.314823
34.065918,27.586044,8.314823
34.065918,27.586044,7.314823
34.065918,27.586044,6.314823
34.065918,27.586044,5.314823
35.01219,28.352324,5.009533
35.01219,28.352324,4.009533
35.01219,28.352324,3.009533
35.01219,28.352324,2.009533
35.95847,29.118603,1.7042427
35.95847,29.118603,0.7042427
47.313774,38.31395,4.0407524
48.26005,39.08023,3.7354622
49.206326,39.846508,3.430172
52.04515,42.145344,4.5143013
52.04515,42.145344,3.5143013
54.883984,44.444187,4.598427
55.830257,45.210464,4.2931366
58.669083,47.5093,5.377266
59.615356,48.275578,5.0719757
62.45418,50.574413,6.156101
62.45418,50.574413,5.156101
65.293015,52.873253,6.2402306
66.23929,53.639534,5.9349403
70.02438,56.704647,6.7137756
70.970665,57.470924,6.4084854
74.75577,60.536045,7.1873207
75.70204,61.302322,6.8820305
// image  045
-112.20448,-101.02938,285.16135
-112.20448,-101.02938,278.16135
-112.20448,-101.02938,277.16135
-112.20448,-101.02938,276.16135
-111.2996,-100.21462,275.85605
-111.2996,-100.21462,274.85605
-111.2996,-100.21462,273.85605
-111.2996,-100.21462,272.85605
-112.20448,-101.02938,271.16135
-112.20448,-101.02938,270.16135
-112.20448,-101.02938,269.16135
-111.2996,-100.21462,268.85605
-111.2996,-100.21462,267.85605
-111.2996,-100.21462,266.85605
-111.2996,-100.21462,265.85605
-112.20448,-101.02938,264.16135
-112.20448,-101.02938,263.16135
-112.20448,-101.02938,262.16135
-112.20448,-101.02938,261.16135
-111.2996,-100.21462,260.85605
-111.2996,-100.21462,232.85605
-111.2996,-100.21462,231.85605
-111.2996,-100.21462,230.85605
-111.2996,-100.21462,229.85605
-111.2996,-100.21462,228.85605
-111.2996,-100.21462,227.85605
-111.2996,-100.21462,226.85605
-111.2996,-100.21462,225.85605
-111.2996,-100.21462,215.85605
-111.2996,-100.21462,214.85605
-110.39473,-99.39987,214.55075
-111.2996,-100.21462,212.85605
-111.2996,-100.21462,211.85605
-111.2996,-100.21462,210.85605
-111.2996,-100.21462,209.85605
-111.2996,-100.21462,208.85605
-111.2996,-100.21462,207.85605
-111.2996,-100.21462,206.85605
-111.2996,-100.21462,205.85605
-111.2996,-100.21462,204.85605
-111.2996,-100.21462,203.85605
-111.2996,-100.21462,202.85605
-111.2996,-100.21462,201.85605
-110.39473,-99.39987,201.55075
-110.39473,-99.39987,200.55075
-111.2996,-100.21462,198.85605
-111.2996,-100.21462,197.85605
-111.2996,-100.21462,196.85605
-111.2996,-100.21462,195.85605
-111.2996,-100.21462,194.85605
-111.2996,-100.21462,193.85605
-111.2996,-100.21462,192.85605
-111.2996,-100.21462,191.85605
-111.2996,-100.21462,190.85605
-111.2996,-100.21462,189.85605
-110.39473,-99.39987,189.55075
-110.39473,-99.39987,188.55075
-110.39473,-99.39987,187.55075
-110.39473,-99.39987,186.55075
-110.39473,-99.39987,185.55075
-110.39473,-99.39987,184.55075
-110.39473,-99.39987,183.55075
-110.39473,-99.39987,182.55075
-110.39473,-99.39987,181.55075
-110.39473,-99.39987,180.55075
-110.39473,-99.39987,179.55075
-110.39473,-99.39987,178.55075
-110.39473,-99.39987,177.55075
-110.39473,-99.39987,176.55075
-110.39473,-99.39987,175.55075
-110.39473,-99.39987,174.55075
-110.39473,-99.39987,173.55075
-110.39473,-99.39987,172.55075
-110.39473,-99.39987,171.55075
-110.39473,-99.39987,170.55075
-110.39473,-99.39987,169.55075
-110.39473,-99.39987,168.55075
-110.39473,-99.39987,167.55075
-110.39473,-99.39987,166.55075
-110.39473,-99.39987,165.55075
-110.39473,-99.39987,164.55075
-110.39473,-99.39987,163.55075
-110.39473,-99.39987,162.55075
-110.39473,-99.39987,161.55075
-110.39473,-99.39987,160.55075
-110.39473,-99.39987,150.55075
-110.39473,-99.39987,149.55075
-110.39473,-99.39987,148.55075
-110.39473,-99.39987,147.55075
-110.39473,-99.39987,146.55075
-110.39473,-99.39987,145.55075
-110.39473,-99.39987,144.55075
-110.39473,-99.39987,143.55075
-110.39473,-99.39987,142.55075
-109.48985,-98.58512,142.24547
-109.48985,-98.58512,141.24547
-109.48985,-98.58512,140.24547
-109.48985,-98.58512,139.24547
-109.48985,-98.58512,138.24547
-109.48985,-98.58512,137.24547
-109.48985,-98.58512,136.24547
-108.584984,-97.77037,135.94019
-108.584984,-97.77037,134.94019
-109.48985,-98.58512,133.24547
-109.48985,-98.58512,132.24547
-109.48985,-98.58512,131.24547
-109.48985,-98.58512,130.24547
-108.584984,-97.77037,129.94019
-108.584984,-97.77037,128.94019
-109.48985,-98.58512,127.24547
-109.48985,-98.58512,126.24547
-109.48985,-98.58512,125.24547
-108.584984,-97.77037,124.94018
-108.584984,-97.77037,123.94018
-108.584984,-97.77037,122.94018
-108.584984,-97.77037,121.94018
-109.48985,-98.58512,120.24547
-108.584984,-97.77037,119.94018
-108.584984,-97.77037,118.94018
-108.584984,-97.77037,117.94018
-108.584984,-97.77037,116.94018
-108.584984,-97.77037,115.94018
-108.584984,-97.77037,114.94018
-108.584984,-97.77037,113.94018
-108.584984,-97.77037,112.94018
-108.584984,-97.77037,111.94018
-108.584984,-97.77037,110.94018
-108.584984,-97.77037,109.94018
-108.584984,-97.77037,108.94018
-108.584984,-97.77037,107.94018
-108.584984,-97.77037,106.94018
-108.584984,-97.77037,105.94018
-108.584984,-97.77037,104.94018
-108.584984,-97.77037,103.94018
-108.584984,-97.77037,102.94018
-108.584984,-97.77037,101.94018
-108.584984,-97.77037,100.94018
